# .PCD v0.7 - Point Cloud Data file format
VERSION 0.7
FIELDS x y z
SIZE 4 4 4
TYPE F F F
COUNT 1 1 1
WIDTH 104
HEIGHT 1
VIEWPOINT 0 0 0 1 0 0 0
POINTS 104
DATA ascii
0.62597245 -0.52991521 1.6810001
0.66652989 -0.52671331 1.6810001
0.6724 -0.52191043 1.6810001
0.68307304 -0.52778059 1.6810001
0.692572 -0.52607292 1.6810001
0.49969715 -0.56761718 1.6980001
0.51748574 -0.56761718 1.6980001
0.52510196 -0.56492895 1.6953335
0.52395433 -0.55629712 1.6980001
0.55585653 -0.5569346 1.6966667
0.56459826 -0.55540705 1.6949233
0.57461029 -0.55475509 1.6936926
0.59386903 -0.5545013 1.6908891
0.60475051 -0.55348998 1.6924002
0.55850476 -0.54562861 1.6900001
0.56574762 -0.54482383 1.6900001
0.57505989 -0.54470885 1.6900003
0.5842005 -0.54635191 1.6910002
0.59566635 -0.54574013 1.6958181
0.60602432 -0.54538143 1.6980001
0.61492419 -0.54638946 1.6914548
0.62546098 -0.54756004 1.6900002
0.63576192 -0.54562861 1.6900003
0.64380956 -0.54482383 1.6900001
0.60666984 -0.5378902 1.6926666
0.61000955 -0.53919047 1.6900001
0.63569987 -0.53715187 1.6922858
0.64533907 -0.53653389 1.6936364
0.65475118 -0.53540897 1.6933335
0.66308713 -0.53409672 1.6930001
0.6754635 -0.53382546 1.6900001
0.68082857 -0.53436196 1.6900001
0.64847428 -0.52880573 1.6980001
0.65585148 -0.52612853 1.692
0.66390288 -0.52773809 1.692
0.676 -0.52953333 1.6900001
0.68404758 -0.52792382 1.6900001
0.69209528 -0.52631426 1.6900001
0.70341337 -0.51948953 1.694
0.42081335 -0.58816385 1.7060001
0.44680953 -0.58816385 1.7060001
0.45168385 -0.58545589 1.7060002
0.46677092 -0.58607483 1.7060002
0.47686762 -0.58735144 1.7060001
0.4861649 -0.58509487 1.7060002
0.49338606 -0.58328956 1.706
0.46305716 -0.57679045 1.7060001
0.49555239 -0.57516575 1.7060001
0.50692576 -0.57029146 1.7060001
0.51342475 -0.57029146 1.7060001
0.505301 -0.56541717 1.7060001
0.51504958 -0.56704193 1.7060001
0.52154863 -0.56704193 1.7060001
0.5507943 -0.56379241 1.7060001
0.42630002 -0.6027 1.715
0.43718889 -0.60378891 1.715
0.44345003 -0.60514998 1.715
0.42793337 -0.59698337 1.715
0.43544665 -0.59812671 1.7149999
0.44345003 -0.59534997 1.715
0.44426668 -0.58963335 1.715
0.46876669 -0.58310002 1.715
0.47623333 -0.58590001 1.715
0.48401114 -0.58418888 1.715
0.49490002 -0.58310002 1.715
0.46876669 -0.57983333 1.715
0.47529998 -0.57983333 1.715
0.48510003 -0.57852662 1.7149999
0.49490002 -0.5751667 1.715
0.50252223 -0.57112223 1.715
0.51450002 -0.57003337 1.715
0.49707779 -0.56567782 1.715
0.50306666 -0.56513333 1.715
0.51558894 -0.56567782 1.715
0.52429998 -0.56513333 1.715
0.5341 -0.56676668 1.715
0.54063338 -0.56676668 1.715
0.55043334 -0.56676668 1.715
0.42828858 -0.5923838 1.723
0.43485239 -0.59402472 1.7229999
0.44141617 -0.59566569 1.723
0.42828858 -0.58746099 1.723
0.43485239 -0.58582002 1.7229998
0.44551858 -0.58499956 1.723
0.44633907 -0.57925618 1.723
0.45290285 -0.57761526 1.723
0.46603048 -0.57761526 1.723
0.4853937 -0.57663065 1.7229999
0.49327031 -0.57466155 1.7229999
0.4922857 -0.5694105 1.723
0.5169 -0.56776953 1.723
0.52346385 -0.56776953 1.723
0.53659141 -0.5694105 1.723
0.54807806 -0.5694105 1.723
0.44702098 -0.59217906 1.7320001
0.45361909 -0.59217906 1.732
0.46021718 -0.59217906 1.7320001
0.4448216 -0.585581 1.732
0.45471874 -0.58668065 1.732
0.47506291 -0.58228195 1.7320001
0.48001143 -0.58228195 1.7320001
0.47561273 -0.57788318 1.732
0.48331049 -0.57568389 1.7320002
0.44602764 -0.59194005 1.7410001
