# .PCD v0.7 - Point Cloud Data file format
VERSION 0.7
FIELDS x y z
SIZE 4 4 4
TYPE F F F
COUNT 1 1 1
WIDTH 1506
HEIGHT 1
VIEWPOINT 0 0 0 1 0 0 0
POINTS 1506
DATA ascii
-0.19973142 0.44748572 1.146
-0.18445143 0.44857714 1.146
-0.24295199 0.45250624 1.146
-0.23413602 0.45260686 1.1424001
-0.2286602 0.45274553 1.1444
-0.21064572 0.45076001 1.146
-0.20436999 0.45485285 1.146
-0.19527857 0.45474431 1.1455001
-0.18445143 0.45512572 1.146
-0.17469278 0.45589617 1.146
-0.16844381 0.45730856 1.146
-0.20300572 0.4616743 1.146
-0.19973142 0.4616743 1.146
-0.1829962 0.4624019 1.146
-0.17426476 0.46312952 1.146
-0.16422363 0.46400273 1.146
-0.15825714 0.46604002 1.146
-0.32175618 0.40880668 1.1570001
-0.2530708 0.40586826 1.1570001
-0.24792857 0.40219525 1.1570001
-0.33204067 0.41615272 1.1570001
-0.32506192 0.41541803 1.1569997
-0.31561702 0.41683486 1.1569998
-0.30562833 0.4184233 1.1569999
-0.29494321 0.41909111 1.1570001
-0.2839739 0.41813794 1.1566
-0.27501747 0.41692284 1.1550714
-0.26487732 0.41573837 1.155857
-0.2544654 0.41548121 1.1566664
-0.24454941 0.41674036 1.1569998
-0.23606451 0.41688851 1.1567142
-0.22431634 0.41888124 1.1570002
-0.21545745 0.41659698 1.1561999
-0.20723298 0.41733241 1.1561998
-0.33263192 0.42515099 1.1565001
-0.32458276 0.42510656 1.1556665
-0.31514478 0.42533532 1.1569998
-0.30527183 0.42495888 1.1529999
-0.29510134 0.42454544 1.1518798
-0.28467929 0.42417365 1.1516818
-0.27453655 0.42455414 1.1505452
-0.26495081 0.42390904 1.1507142
-0.2551387 0.42450187 1.1517597
-0.24506326 0.42484036 1.1529543
-0.23518413 0.42470559 1.1514999
-0.22501467 0.4247843 1.1525199
-0.2151715 0.42485142 1.1526999
-0.20552628 0.42534217 1.1540399
-0.19571525 0.42651147 1.1552221
-0.18545426 0.42711881 1.1546469
-0.17667206 0.42753908 1.1570001
-0.33277524 0.43194669 1.1570001
-0.3251828 0.43190277 1.1565557
-0.31514478 0.43084478 1.1570001
-0.30435929 0.43317723 1.1527778
-0.294626 0.43452811 1.1504736
-0.28451854 0.43480954 1.1499999
-0.27490482 0.43480965 1.1499997
-0.26536977 0.43455184 1.1499999
-0.2555888 0.43202165 1.15
-0.24533336 0.43042859 1.1500001
-0.23453745 0.43277553 1.1499999
-0.22468528 0.43512595 1.1508398
-0.21494868 0.43537468 1.1514999
-0.2048948 0.43498939 1.1504798
-0.19502825 0.43497801 1.1504499
-0.18569437 0.43516657 1.1519564
-0.17611724 0.4356291 1.1561576
-0.16602032 0.43892542 1.1570001
-0.15647048 0.43966004 1.1570001
-0.29319143 0.44180033 1.153
-0.28399885 0.44374064 1.1523333
-0.27490038 0.44486216 1.1509472
-0.26547104 0.44567683 1.15025
-0.25792858 0.4474048 1.1500001
-0.22356549 0.44425598 1.1499999
-0.21525642 0.44407699 1.1499999
-0.20396703 0.44357154 1.1499999
-0.1949524 0.44466671 1.1499999
-0.18490395 0.44443086 1.1506816
-0.17482033 0.4440369 1.1519564
-0.16511494 0.44475934 1.152318
-0.15486304 0.44481346 1.1532397
-0.14718786 0.44734094 1.1554999
-0.28208762 0.45178097 1.1570001
-0.27500379 0.45209998 1.155
-0.26500818 0.4519434 1.1545999
-0.25393358 0.45375517 1.15175
-0.24755184 0.45486423 1.1508571
-0.22372413 0.45360363 1.1510768
-0.21515992 0.4533287 1.1503
-0.2091905 0.4556191 1.1500001
-0.1949524 0.45014289 1.1500001
-0.18509525 0.45014289 1.1500001
-0.17508164 0.45108166 1.1500002
-0.16519843 0.45452383 1.1499997
-0.15442857 0.45452386 1.1499997
-0.14512132 0.45500475 1.152105
-0.13817887 0.45861277 1.1570001
-0.20973618 0.4601019 1.153
-0.19480431 0.46413693 1.1507502
-0.18562412 0.46624604 1.151
-0.17501907 0.4685429 1.1500001
-0.16565476 0.46629769 1.1500001
-0.15424605 0.46538499 1.1499997
-0.14445007 0.46527749 1.1502855
-0.13606517 0.46588954 1.1537498
-0.12818827 0.46757495 1.1570001
-0.18622191 0.47051337 1.1570001
-0.17333239 0.47309425 1.1543334
-0.16378349 0.47475937 1.1524444
-0.15433067 0.47505575 1.1513125
-0.14466678 0.47564512 1.1507499
-0.13434701 0.47491506 1.1509564
-0.12571678 0.47548395 1.1548998
-0.11790381 0.47932857 1.1570001
-0.15316477 0.48153242 1.1570001
-0.14226349 0.48237777 1.152
-0.13487715 0.48359001 1.1513999
-0.12579958 0.48352829 1.1553334
-0.25317198 0.37920132 1.169
-0.24560133 0.37920132 1.169
-0.23936667 0.37964666 1.169
-0.20819335 0.37964666 1.169
-0.32212856 0.38884985 1.1676668
-0.31619462 0.38884985 1.1676668
-0.29948667 0.38632667 1.169
-0.27165332 0.38744 1.169
-0.26430535 0.38654938 1.1689999
-0.25457612 0.3855918 1.1688001
-0.24493334 0.38521332 1.169
-0.23862444 0.38595557 1.169
-0.213092 0.38654935 1.1689999
-0.20763668 0.38632667 1.169
-0.39078 0.39968669 1.169
-0.38521335 0.39968669 1.169
-0.37630665 0.39968669 1.169
-0.35302955 0.3961131 1.1675
-0.34516591 0.39674205 1.1664286
-0.33429366 0.39692348 1.1687332
-0.32441586 0.39489871 1.1665558
-0.31459537 0.39432698 1.1660002
-0.30548528 0.39512083 1.1671821
-0.29553553 0.39501444 1.1680478
-0.28514278 0.39591205 1.1670002
-0.27478525 0.3944805 1.1673336
-0.26484895 0.39486071 1.1672859
-0.2548615 0.39464206 1.1672611
-0.24507706 0.39524999 1.1684288
-0.23542905 0.39572161 1.1688001
-0.22498281 0.39557657 1.1679474
-0.21481352 0.39459357 1.1676669
-0.20634151 0.3961513 1.1684284
-0.19427668 0.39968669 1.169
-0.18567926 0.39795488 1.169
-0.17924666 0.39968669 1.169
-0.16143334 0.39968669 1.169
-0.15698001 0.39968669 1.169
-0.40414 0.40664497 1.169
-0.39503479 0.40579119 1.1666844
-0.38509396 0.40544796 1.1658337
-0.37521288 0.40583134 1.1671818
-0.36375034 0.40796858 1.1672223
-0.35519546 0.4055745 1.1660528
-0.34509942 0.4047083 1.1645004
-0.33502376 0.4048073 1.1648184
-0.32488498 0.40436563 1.1635458
-0.31511557 0.40464154 1.1631821
-0.30511782 0.40497532 1.1650004
-0.29513335 0.40497622 1.1650003
-0.28553358 0.4046869 1.1650004
-0.27532202 0.40476903 1.1635455
-0.26532474 0.40397418 1.1630002
-0.25567105 0.40408462 1.1621429
-0.24502389 0.4036631 1.1621426
-0.235728 0.40489957 1.1639566
-0.22511055 0.4047516 1.1643603
-0.21498993 0.40448612 1.1636002
-0.20486571 0.40419358 1.1627601
-0.19524209 0.40490022 1.1647999
-0.18518627 0.40475065 1.1643604
-0.17520958 0.40628999 1.1671054
-0.16529115 0.40691927 1.1675882
-0.15638721 0.40638405 1.1681427
-0.40414 0.41082001 1.169
-0.39457658 0.41457149 1.1664546
-0.38505724 0.41473609 1.1636667
-0.37523824 0.41483316 1.1647896
-0.36541957 0.41438019 1.1654447
-0.3543871 0.41480768 1.1611816
-0.34488922 0.4146342 1.1615713
-0.33655837 0.41454306 1.1615
-0.32729143 0.41022003 1.161
-0.31444815 0.41226134 1.1610001
-0.30491123 0.41376296 1.1623334
-0.29495054 0.41473985 1.1615715
-0.28585657 0.41355759 1.1612667
-0.27583319 0.4120912 1.1610001
-0.26647714 0.41148371 1.1610001
-0.25453538 0.41066226 1.161
-0.24559143 0.41169432 1.1610001
-0.2342732 0.41339889 1.161
-0.22490224 0.41364771 1.1609999
-0.2140663 0.41198915 1.1610001
-0.20378315 0.41397944 1.1609999
-0.1946716 0.4147853 1.1613998
-0.18493058 0.41526932 1.1627599
-0.1751844 0.41578263 1.1642003
-0.16538437 0.41536048 1.1648337
-0.15436883 0.41541144 1.1683046
-0.14665636 0.4156782 1.1689999
-0.39189333 0.42195335 1.169
-0.38439101 0.42216337 1.1665001
-0.37853333 0.42195335 1.169
-0.36261964 0.42168745 1.1658001
-0.35459191 0.42329383 1.1635001
-0.34472582 0.42428654 1.1631819
-0.33819062 0.4241204 1.1610001
-0.20124 0.42127714 1.161
-0.19423716 0.4227514 1.1610001
-0.18428572 0.42293569 1.1610001
-0.17462915 0.42452058 1.161
-0.16455066 0.42435524 1.1617273
-0.15485135 0.42470959 1.1651821
-0.145768 0.42619386 1.1666002
-0.13808705 0.42848897 1.1674001
-0.34402001 0.43086001 1.169
-0.33898574 0.43345904 1.1670001
-0.31534725 0.43528742 1.1618
-0.17233346 0.43391392 1.1610001
-0.16446298 0.43416116 1.1609998
-0.15479998 0.4345457 1.1609999
-0.14543813 0.43506879 1.1634347
-0.1346982 0.43452683 1.1660002
-0.12690033 0.43713036 1.167909
-0.28859141 0.44781429 1.161
-0.15148287 0.44118002 1.161
-0.14407103 0.44398823 1.162263
-0.13487646 0.4448866 1.1651821
-0.12557472 0.44569102 1.1678573
-0.11764222 0.44681776 1.169
-0.29169333 0.45201331 1.169
-0.28588733 0.4556483 1.1650001
-0.27849048 0.45823336 1.1650001
-0.14137347 0.452869 1.1610001
-0.13491625 0.45487142 1.1626843
-0.1254092 0.45503083 1.1653336
-0.11714851 0.45499203 1.1680768
-0.25272667 0.46722889 1.169
-0.24763621 0.46584621 1.166
-0.13246457 0.462852 1.161
-0.1244069 0.46490332 1.1626
-0.11635257 0.46561918 1.1661767
-0.19260666 0.47539335 1.169
-0.18972859 0.47376671 1.1650001
-0.12178653 0.47435144 1.1610001
-0.11536275 0.47477946 1.1647778
-0.17034 0.48207334 1.169
-0.16448572 0.48458481 1.1670001
-0.15755621 0.48486191 1.165
-0.12279361 0.48754406 1.1615715
-0.11707361 0.48493999 1.1644286
-0.12315714 0.49151906 1.1650001
-0.22082762 0.35982573 1.177
-0.29256859 0.36879334 1.177
-0.24324667 0.36655143 1.177
-0.22082762 0.36580411 1.177
-0.21410191 0.36879334 1.177
-0.20961811 0.36879334 1.177
-0.31274575 0.37776098 1.177
-0.30265716 0.37664002 1.177
-0.29441488 0.37499154 1.177
-0.28696382 0.37439811 1.177
-0.27239144 0.37776098 1.177
-0.26472735 0.37729132 1.1755456
-0.25525001 0.37783718 1.1755002
-0.24492997 0.37548807 1.1762729
-0.23558785 0.37555498 1.1762942
-0.22483101 0.37503865 1.177
-0.21437789 0.37671089 1.1762729
-0.20569471 0.37607318 1.176158
-0.1982722 0.37660593 1.1762002
-0.16445972 0.37712044 1.177
-0.42820382 0.38897046 1.177
-0.40192375 0.38623035 1.177
-0.39457527 0.38608798 1.177
-0.38623038 0.38722673 1.177
-0.37439811 0.38897046 1.177
-0.36471713 0.38672855 1.177
-0.35550535 0.38598958 1.1768
-0.34512883 0.38498485 1.177
-0.3349663 0.38612288 1.1767647
-0.32508034 0.38658583 1.1756668
-0.31484181 0.38456592 1.1752002
-0.30492166 0.38497585 1.1737695
-0.29455525 0.38477579 1.1747144
-0.28467447 0.38510364 1.1758801
-0.27522576 0.38378599 1.1751819
-0.26516911 0.38297692 1.1730002
-0.23415387 0.38484508 1.1734213
-0.22517508 0.38491246 1.1754829
-0.21600844 0.38323542 1.1742311
-0.20412311 0.3849104 1.1734707
-0.19565852 0.38484168 1.1763045
-0.18572566 0.38721043 1.1762002
-0.17430811 0.3853274 1.177
-0.16477999 0.38448673 1.177
-0.15730698 0.38598129 1.177
-0.45577922 0.39390266 1.177
-0.43405771 0.39619434 1.177
-0.42507687 0.39475226 1.177
-0.41481045 0.39559907 1.1767143
-0.40481108 0.39477745 1.1768095
-0.39442623 0.39504686 1.1765556
-0.38451546 0.39526194 1.1757201
-0.37449011 0.39474604 1.1745557
-0.3654798 0.39468566 1.1750002
-0.35544929 0.39332643 1.1747144
-0.34514123 0.39300668 1.175154
-0.33708999 0.39365759 1.175182
-0.32955718 0.39211717 1.1730001
-0.30274573 0.39211717 1.1730001
-0.2919032 0.39181557 1.1743335
-0.2859886 0.39211717 1.1730001
-0.23404145 0.39267576 1.1730001
-0.22566287 0.39211717 1.1730001
-0.20316042 0.39498982 1.1730002
-0.19550765 0.3949264 1.1741668
-0.18362641 0.39403486 1.1744119
-0.1751622 0.39482495 1.1767647
-0.16462754 0.39496109 1.1766365
-0.15559863 0.39559159 1.1766924
-0.14376216 0.39709738 1.177
-0.13608363 0.39704132 1.177
-0.43470535 0.40242195 1.177
-0.42468077 0.40338272 1.177
-0.41517937 0.40337256 1.1743336
-0.4055827 0.40242574 1.1739414
-0.39730307 0.40132627 1.1738001
-0.37424287 0.40239486 1.1730001
-0.36668521 0.40392151 1.1742002
-0.35860288 0.40105429 1.1730001
-0.1977343 0.40105429 1.1730001
-0.17447239 0.40150765 1.1743336
-0.16595277 0.40190917 1.1742002
-0.15373799 0.40362838 1.1748668
-0.14468266 0.40493751 1.1757145
-0.13600889 0.40541115 1.177
-0.41307098 0.41194999 1.177
-0.40475333 0.41537195 1.174
-0.14241396 0.41463891 1.1740911
-0.13557979 0.41523182 1.1755265
-0.12554668 0.41587332 1.177
-0.11802026 0.41651386 1.177
-0.40242192 0.42035717 1.177
-0.39658573 0.4211629 1.1730001
-0.38094574 0.42563143 1.1730001
-0.37600195 0.42411906 1.1750001
-0.36977431 0.42339718 1.1730001
-0.14187714 0.42451432 1.1730001
-0.13485056 0.42418954 1.1746365
-0.12554666 0.42484093 1.177
-0.11690874 0.42523658 1.177
-0.10873239 0.42708287 1.177
-0.36206764 0.43156669 1.177
-0.35422096 0.43156669 1.177
-0.34966573 0.43010002 1.1730001
-0.13238144 0.43065861 1.1730001
-0.12453457 0.4340269 1.1750001
-0.11590864 0.4353818 1.1767895
-0.10873239 0.4360505 1.177
-0.3116248 0.44613907 1.177
-0.30662099 0.44873813 1.1750001
-0.12176858 0.44127148 1.1730001
-0.1144961 0.44377479 1.1752001
-0.10873238 0.44726002 1.177
-0.30377811 0.45249113 1.177
-0.29447904 0.45570827 1.1756667
-0.11227286 0.45411864 1.1730002
-0.10873239 0.45174384 1.177
-0.29144764 0.46183237 1.177
-0.28411371 0.46411601 1.1754001
-0.27437672 0.46476614 1.1759092
-0.26570705 0.46532899 1.1762002
-0.25894001 0.46967906 1.177
-0.24548857 0.46967906 1.177
-0.11252191 0.46425271 1.1736668
-0.25501218 0.47380564 1.1761112
-0.2472821 0.47326612 1.177
-0.11097429 0.4752838 1.177
-0.11320449 0.48491386 1.1735716
-0.23213808 0.33744952 1.189
-0.22534381 0.33820447 1.189
-0.30008096 0.34764096 1.189
-0.29296312 0.34828803 1.189
-0.28479382 0.34820715 1.189
-0.27516857 0.3499057 1.189
-0.26465359 0.34699386 1.189
-0.25834465 0.34667036 1.189
-0.24119714 0.34877333 1.189
-0.2351106 0.34636697 1.1889999
-0.22551489 0.34552851 1.1888179
-0.21525453 0.34819597 1.1880001
-0.37708285 0.35783237 1.189
-0.34537619 0.35851178 1.189
-0.33540896 0.35799867 1.1858001
-0.32499331 0.35896474 1.189
-0.3148019 0.35896474 1.189
-0.30234575 0.35594505 1.189
-0.29388133 0.35516775 1.1862501
-0.28485876 0.35492161 1.1866001
-0.2748774 0.35519215 1.18775
-0.26525724 0.35535225 1.1874443
-0.25533229 0.3557663 1.1882499
-0.24434488 0.35593605 1.1870002
-0.23431894 0.35472709 1.1841111
-0.22485605 0.35464194 1.1831818
-0.21501778 0.35505199 1.1831818
-0.20454966 0.35610858 1.1875715
-0.19448359 0.35504121 1.18725
-0.18538155 0.35621896 1.186
-0.17763239 0.3569662 1.1880001
-0.16419524 0.35896474 1.189
-0.40335408 0.36621204 1.189
-0.39595589 0.36764637 1.189
-0.38387713 0.36802378 1.189
-0.37401879 0.3648265 1.1889999
-0.36686879 0.36596283 1.1882001
-0.35420612 0.36715907 1.1875455
-0.34540248 0.3645882 1.1852
-0.33528018 0.36423698 1.1846665
-0.32477733 0.36424342 1.1840907
-0.31481364 0.36486569 1.1854998
-0.30471697 0.36452475 1.1849999
-0.29453829 0.36343431 1.1824543
-0.28500769 0.36466047 1.1844782
-0.27509373 0.36415601 1.1838
-0.26510271 0.3639265 1.1836666
-0.25483426 0.36403608 1.1827142
-0.24523805 0.36302593 1.1820527
-0.23525023 0.36402208 1.1813636
-0.2257311 0.36450943 1.181
-0.21468315 0.36427122 1.1813809
-0.20475817 0.36399186 1.1842725
-0.18434773 0.36407101 1.1818889
-0.17521352 0.36454329 1.1856664
-0.16509239 0.36485237 1.1853808
-0.15521115 0.36570427 1.1869999
-0.14834191 0.36689144 1.189
-0.50390953 0.37934762 1.189
-0.49598286 0.3785927 1.189
-0.47333527 0.37934762 1.189
-0.46616352 0.37859273 1.189
-0.45861429 0.37934762 1.189
-0.44179034 0.37675929 1.189
-0.43486568 0.37555382 1.1884667
-0.42474407 0.37460431 1.1870868
-0.41466713 0.37563142 1.188
-0.40456668 0.37498015 1.1862725
-0.39459395 0.37451577 1.1849997
-0.38518023 0.374854 1.1872606
-0.37544763 0.37431222 1.1873999
-0.36485353 0.37425068 1.1848333
-0.35521406 0.37479645 1.1818
-0.3451145 0.37473318 1.1809999
-0.33563623 0.37505168 1.1825999
-0.3250562 0.37454575 1.1809999
-0.31476083 0.37415856 1.1811999
-0.30560446 0.37361944 1.181
-0.2958124 0.3709465 1.1810001
-0.28308892 0.37416396 1.1814705
-0.27464041 0.37375179 1.181
-0.26501125 0.37281531 1.181
-0.25598261 0.37295783 1.181
-0.2457605 0.37060907 1.1810001
-0.23407549 0.37129647 1.1810001
-0.22575581 0.37261763 1.1810001
-0.2164042 0.37229624 1.181
-0.20433174 0.37154636 1.1810001
-0.19383399 0.37401015 1.181
-0.18446097 0.37454575 1.181
-0.17549239 0.37460837 1.1811999
-0.16546498 0.37304604 1.181
-0.15444134 0.37451947 1.1829998
-0.14551097 0.37566733 1.1889999
-0.13611218 0.37776226 1.189
-0.51523334 0.38840666 1.189
-0.50523067 0.38519827 1.189
-0.49503934 0.38521254 1.1877271
-0.485414 0.38765177 1.189
-0.47369239 0.38619146 1.1880001
-0.46531355 0.38523713 1.1871816
-0.45478326 0.38558581 1.185727
-0.44473085 0.38529372 1.1863999
-0.43521968 0.3848733 1.1843685
-0.42552707 0.38489187 1.1851598
-0.41461602 0.38419068 1.183
-0.40645635 0.3831954 1.1816666
-0.39511281 0.381937 1.1810001
-0.38422155 0.38365692 1.1824
-0.3746869 0.38399687 1.1820908
-0.36598456 0.38229835 1.1815001
-0.35519987 0.38174421 1.1810001
-0.34350234 0.38354379 1.1810001
-0.33405432 0.38241908 1.1810001
-0.32589978 0.38213789 1.1810001
-0.31718287 0.38129431 1.1810001
-0.30930954 0.38129431 1.1810001
-0.19008479 0.38129431 1.1810001
-0.18456322 0.38333932 1.181
-0.1777124 0.38241905 1.1810001
-0.15309769 0.38444245 1.183
-0.14448361 0.38490096 1.1852
-0.13493413 0.38469011 1.1851816
-0.12580745 0.38594761 1.1875882
-0.1189 0.38387716 1.189
-0.50390953 0.3919656 1.189
-0.49494395 0.39325488 1.1883848
-0.48471794 0.39369899 1.1852103
-0.47517699 0.39419433 1.1840475
-0.46427268 0.39519981 1.1813477
-0.45323351 0.39445227 1.18125
-0.44522819 0.39502823 1.181
-0.43712348 0.39254192 1.181
-0.42347288 0.39085478 1.1810001
-0.41588071 0.39113599 1.1810001
-0.4082886 0.39029241 1.1810001
-0.15296763 0.39254197 1.1810001
-0.14549127 0.39307123 1.181
-0.13444656 0.3935917 1.181
-0.12504323 0.39475796 1.1836665
-0.11731467 0.3965598 1.189
-0.48384193 0.4024514 1.1870002
-0.47499639 0.40362573 1.1858001
-0.46400088 0.40469837 1.1823332
-0.45469314 0.4051736 1.1817499
-0.44540575 0.40491429 1.181
-0.43528289 0.40688261 1.1810001
-0.42740953 0.4082886 1.1810001
-0.13288261 0.40411091 1.1810001
-0.12465377 0.40471095 1.1811904
-0.11559778 0.40590689 1.186111
-0.10698 0.40868935 1.1874001
-0.46767333 0.41105428 1.189
-0.45464432 0.41393003 1.1875
-0.44493642 0.41386455 1.1865001
-0.43487337 0.41260409 1.1845001
-0.42558765 0.41334438 1.1844286
-0.41728666 0.41428733 1.1810001
-0.40603909 0.4195362 1.1810001
-0.13159716 0.41166288 1.1810001
-0.12484859 0.41166291 1.181
-0.11421049 0.41436785 1.1815
-0.10507828 0.414859 1.1843598
-0.098406672 0.41511524 1.1876668
-0.40154004 0.42403525 1.1810001
-0.3992905 0.42628479 1.1810001
-0.37454575 0.42628479 1.1810001
-0.11263688 0.424678 1.1810001
-0.10452912 0.42506081 1.1838571
-0.098517142 0.42464286 1.189
-0.11360096 0.43303338 1.1810001
-0.10468693 0.43506002 1.1831816
-0.098517142 0.43483427 1.189
-0.31380859 0.44878006 1.1810001
-0.10596191 0.44453117 1.1836667
-0.098517142 0.44049618 1.189
-0.30428886 0.45747855 1.1827143
-0.29806194 0.45777816 1.1810001
-0.10642087 0.45556667 1.1853637
-0.11135144 0.46677625 1.1810001
-0.26675999 0.31806001 1.197
-0.22686 0.31691998 1.197
-0.18354 0.317148 1.197
-0.17783999 0.31806001 1.197
-0.29297999 0.32946 1.197
-0.28728002 0.32946 1.197
-0.27702001 0.32946 1.197
-0.26561999 0.32432994 1.1970001
-0.25422001 0.32946 1.197
-0.24358001 0.32641995 1.1970003
-0.23466003 0.32513994 1.1970003
-0.22499812 0.32575697 1.1968004
-0.21622004 0.32641998 1.197
-0.20520003 0.32575497 1.1970003
-0.19645999 0.32768667 1.197
-0.1827109 0.32448542 1.1970001
-0.17537998 0.32501999 1.1970003
-0.16551709 0.32576853 1.1970003
-0.15535092 0.32738724 1.1970001
-0.14934 0.32946 1.197
-0.3243933 0.33756664 1.197
-0.31321499 0.33658504 1.197
-0.30510157 0.33647618 1.1963847
-0.29528633 0.3357057 1.1963047
-0.28503677 0.33607221 1.1962003
-0.27508578 0.3357572 1.1966194
-0.26441512 0.33608469 1.1954764
-0.25501868 0.33584589 1.1954002
-0.2459047 0.33536121 1.1970003
-0.23544577 0.33458006 1.1931907
-0.22463202 0.33375245 1.1935
-0.21475841 0.33569017 1.194167
-0.20468518 0.33545366 1.1940004
-0.19482122 0.33521745 1.1950003
-0.18502003 0.33613774 1.1960479
-0.17556 0.33515999 1.1970003
-0.16529995 0.33515999 1.1970003
-0.15504 0.33516008 1.1970003
-0.14565694 0.33524767 1.1970003
-0.38443336 0.34820664 1.197
-0.37457147 0.34737429 1.1970003
-0.36138001 0.34485 1.197
-0.35504669 0.34770003 1.197
-0.34558281 0.34770003 1.1970003
-0.3348451 0.34586257 1.1967781
-0.32527366 0.3448464 1.1960912
-0.3151072 0.3454133 1.1959568
-0.30527753 0.34471166 1.1945559
-0.29592246 0.34417856 1.1933076
-0.28503758 0.3446452 1.1934446
-0.27480718 0.34489727 1.1934446
-0.26662603 0.34275079 1.193
-0.25450668 0.34540191 1.1930001
-0.24607237 0.34469122 1.1953161
-0.23655489 0.34290227 1.1930001
-0.22155716 0.34540191 1.1930001
-0.21431397 0.34469181 1.1930001
-0.20451432 0.34540191 1.1930001
-0.1957037 0.34520221 1.1934707
-0.18525818 0.34524027 1.1933812
-0.17535333 0.34501219 1.1956003
-0.16516586 0.34514055 1.1960404
-0.15516505 0.34553692 1.1965792
-0.14491411 0.34662703 1.1970003
-0.13451999 0.34998 1.197
-0.12882 0.34998 1.197
-0.47538 0.35910001 1.197
-0.4655 0.35834002 1.197
-0.45638001 0.35796002 1.197
-0.44574001 0.35910001 1.197
-0.4237 0.35834002 1.197
-0.41479713 0.35812289 1.1969999
-0.40470001 0.35808671 1.197
-0.39406002 0.35663 1.1970001
-0.38451862 0.35493621 1.1945001
-0.37422109 0.35450682 1.1943336
-0.36509749 0.35628402 1.1967336
-0.3554588 0.35545546 1.1962501
-0.34569323 0.3545073 1.1945001
-0.3349961 0.35473281 1.1932107
-0.32501787 0.35456502 1.1932501
-0.31472477 0.35449141 1.1930002
-0.30563524 0.35310274 1.193
-0.29881811 0.35221905 1.1930001
-0.28480509 0.35297647 1.193
-0.27609429 0.35108289 1.1930001
-0.25291601 0.35244629 1.1930001
-0.24655336 0.35221907 1.193
-0.21019526 0.35335526 1.1930001
-0.20423023 0.35278714 1.193
-0.19542477 0.35108286 1.1930001
-0.1842901 0.35244626 1.193
-0.17464873 0.35400444 1.193
-0.16477486 0.35455033 1.1932002
-0.15458618 0.35463861 1.1935
-0.14483973 0.35505915 1.1955265
-0.13480061 0.35573998 1.1965296
-0.12751715 0.35682005 1.1969999
-0.48298001 0.36556002 1.197
-0.47517261 0.36544111 1.1960003
-0.46535942 0.36603484 1.195667
-0.45526239 0.3650012 1.1970003
-0.44495493 0.36529157 1.1948951
-0.4352282 0.36628854 1.1938423
-0.42470717 0.36531571 1.1946002
-0.41449544 0.3651711 1.193522
-0.4049668 0.36336306 1.1944287
-0.39515573 0.36388293 1.1940002
-0.38516861 0.36403543 1.1930002
-0.37380672 0.36017242 1.1930001
-0.36443704 0.36420947 1.1932002
-0.35638508 0.3632023 1.193
-0.31018001 0.36017242 1.1930001
-0.30790761 0.36017242 1.1930001
-0.17383714 0.36017242 1.1930001
-0.16383867 0.36062688 1.1930001
-0.15403497 0.36147094 1.193
-0.14505364 0.36433846 1.1930002
-0.13540302 0.36458546 1.1938698
-0.12525237 0.36550862 1.1956004
-0.11513998 0.36480004 1.1970003
-0.10601999 0.36571205 1.1970001
-0.5343343 0.37750289 1.1970003
-0.5244 0.37734005 1.1970001
-0.51475376 0.37679467 1.1963849
-0.50464284 0.37400502 1.1946366
-0.49484062 0.37404907 1.195316
-0.48527232 0.37468246 1.1948185
-0.47492766 0.3749429 1.1930001
-0.46459255 0.37467527 1.1936002
-0.45508724 0.37430421 1.1946003
-0.44633353 0.37456417 1.193
-0.43629718 0.37153432 1.1930001
-0.42266291 0.37153432 1.1930001
-0.41470957 0.37153432 1.1930001
-0.14316002 0.37267053 1.1930001
-0.13432388 0.37368506 1.1934707
-0.12498094 0.37494293 1.1930001
-0.11507628 0.37485945 1.1963603
-0.10525998 0.37544006 1.1970003
-0.099179998 0.37962002 1.197
-0.53415334 0.38506663 1.1970003
-0.52403229 0.38507617 1.1946002
-0.51520813 0.38495538 1.1934001
-0.5063622 0.3813813 1.1930001
-0.49197051 0.38176003 1.1930001
-0.48477465 0.38365376 1.1930002
-0.47697276 0.3833507 1.1930001
-0.46356577 0.38062385 1.1930001
-0.45409751 0.3813813 1.193
-0.44879526 0.38062385 1.1930001
-0.12449402 0.38159773 1.193
-0.11501212 0.38528135 1.1946366
-0.10493026 0.38574019 1.1955265
-0.09765999 0.38570005 1.197
-0.53238004 0.39101997 1.197
-0.52410859 0.39422098 1.1963334
-0.51509249 0.39456493 1.1939231
-0.50463086 0.39717975 1.193
-0.49878767 0.39880291 1.1930001
-0.11283563 0.39428085 1.1935333
-0.10461428 0.39515576 1.1940001
-0.098202847 0.39395145 1.1969999
-0.51489997 0.40013996 1.197
-0.50502002 0.40196401 1.197
-0.49382889 0.40425178 1.1956668
-0.48515338 0.40743795 1.1930001
-0.11134667 0.40334764 1.193
-0.1043689 0.40430743 1.1934707
-0.098324992 0.40555501 1.197
-0.48335999 0.41154 1.197
-0.47384283 0.41461524 1.1960001
-0.46405268 0.41633269 1.193
-0.45561242 0.41925433 1.1930001
-0.44652286 0.41925433 1.1930001
-0.43970576 0.41698194 1.1930001
-0.10490826 0.4101648 1.1930001
-0.096940249 0.41363311 1.194
-0.46466884 0.42509153 1.1966366
-0.4555231 0.42333332 1.1965001
-0.44545498 0.42379501 1.197
-0.43616399 0.42111602 1.197
-0.096576199 0.42493528 1.1930001
-0.096379243 0.43587369 1.1962
-0.21478288 0.29518288 1.2060001
-0.20789143 0.29862857 1.2060001
-0.27450857 0.30896574 1.2060001
-0.2676172 0.30896574 1.2060001
-0.24464574 0.30896574 1.2060001
-0.23316002 0.30724284 1.2060002
-0.22569428 0.30752999 1.2060002
-0.21478288 0.30896574 1.2060001
-0.20395347 0.30765304 1.2060002
-0.19556436 0.30768844 1.2048572
-0.18951431 0.30896574 1.2060001
-0.28140002 0.31815431 1.2060001
-0.27474287 0.3148095 1.2019999
-0.26541147 0.31488669 1.2036842
-0.25435197 0.31679317 1.2052002
-0.2447274 0.31514433 1.2044345
-0.23433575 0.31549928 1.2034543
-0.22429973 0.31450185 1.2034117
-0.21495293 0.31487373 1.2034545
-0.20463181 0.31528839 1.2026955
-0.19473752 0.31501672 1.2027998
-0.18546973 0.31493729 1.2038462
-0.17439952 0.31626764 1.20375
-0.16536726 0.31674099 1.2041333
-0.15760681 0.31734613 1.2054287
-0.35031429 0.32964003 1.2060001
-0.34572002 0.32964003 1.2060001
-0.33270288 0.32887432 1.2060001
-0.32433894 0.3275196 1.2060002
-0.31470859 0.32887432 1.2060002
-0.30472988 0.32631469 1.2056001
-0.29561731 0.32470912 1.2043155
-0.28522164 0.32491949 1.2044345
-0.27474287 0.32511237 1.2019999
-0.26411292 0.32658419 1.202
-0.25522956 0.32455093 1.2026955
-0.24688698 0.32320443 1.202
-0.23925523 0.32167807 1.202
-0.22373398 0.32223687 1.2026668
-0.21384153 0.32442555 1.2019999
-0.20360409 0.32331347 1.202
-0.19384634 0.32434925 1.2019999
-0.18790449 0.32560301 1.202
-0.17972763 0.32396764 1.202
-0.16484571 0.32167807 1.202
-0.15463376 0.32286641 1.2040001
-0.14513513 0.32584655 1.2049474
-0.13576116 0.32642403 1.2060001
-0.12841029 0.32826173 1.2060001
-0.38477147 0.33882859 1.2060001
-0.37358832 0.33719376 1.2048572
-0.36520326 0.33633804 1.2034544
-0.35510889 0.33567047 1.2037143
-0.34559008 0.33654606 1.2037777
-0.33479074 0.33708078 1.2035999
-0.32497874 0.33376983 1.2043335
-0.31601131 0.33399278 1.2032306
-0.305289 0.33213201 1.2031429
-0.29573014 0.33083621 1.202
-0.28275621 0.33083621 1.202
-0.2735981 0.33140859 1.202
-0.26215047 0.33083621 1.202
-0.25986096 0.33083621 1.202
-0.21178097 0.33083621 1.202
-0.19117524 0.33083621 1.202
-0.18774095 0.33083621 1.202
-0.1439278 0.33437461 1.2019999
-0.13514915 0.33558038 1.2025998
-0.12608998 0.33612895 1.2055295
-0.11600572 0.33710575 1.2060001
-0.46287432 0.34801716 1.2060001
-0.45253718 0.34801716 1.2060001
-0.4449566 0.34755772 1.2060001
-0.43530864 0.3468686 1.2060002
-0.42497146 0.34801716 1.2060001
-0.39414075 0.34634408 1.2052728
-0.38504359 0.3437098 1.2055
-0.37577164 0.34393373 1.2033334
-0.36589453 0.34586114 1.2019999
-0.35544857 0.34371474 1.202
-0.34634334 0.34384358 1.2023635
-0.33884954 0.34228382 1.202
-0.15225333 0.34228382 1.202
-0.14509858 0.3442871 1.202
-0.13510975 0.34578928 1.2022499
-0.1251474 0.34531826 1.2046086
-0.11485715 0.34457141 1.2060001
-0.10796572 0.34457147 1.2060001
-0.50307429 0.35950288 1.2060001
-0.49319664 0.35858405 1.2060001
-0.48429558 0.35614255 1.2050002
-0.47504625 0.35644656 1.2040001
-0.46487907 0.35446379 1.2045
-0.45481825 0.35442033 1.204353
-0.44536018 0.35457456 1.203818
-0.43521145 0.35400265 1.2039999
-0.4250415 0.35385433 1.2035999
-0.41478714 0.35348955 1.2042222
-0.40472645 0.35397142 1.2038667
-0.39650771 0.35246328 1.2028888
-0.36594224 0.35220507 1.202
-0.13508192 0.35144192 1.202
-0.12323001 0.35437647 1.2022499
-0.114704 0.35443509 1.2043998
-0.10609929 0.35591358 1.2060001
-0.099925719 0.35835433 1.2060001
-0.52260005 0.36869147 1.2060001
-0.51358896 0.36763391 1.2048001
-0.50506639 0.36654609 1.2049998
-0.49603605 0.36606169 1.2053332
-0.48754141 0.3639071 1.202
-0.46477336 0.36174476 1.202
-0.45561525 0.36174476 1.202
-0.44393867 0.36105791 1.202
-0.43500954 0.36174476 1.202
-0.42928571 0.36288953 1.202
-0.12134476 0.36059999 1.202
-0.11447619 0.36059999 1.202
-0.10427734 0.36347848 1.2032001
-0.097653478 0.36600718 1.2041539
-0.55131435 0.37788001 1.2060001
-0.54425371 0.37643659 1.2036002
-0.53469247 0.37345925 1.2045455
-0.52449548 0.37299824 1.2050771
-0.51697487 0.37299925 1.2036002
-0.49503428 0.37098858 1.2060001
-0.10188381 0.37319237 1.202
-0.096239656 0.37519094 1.2038823
-0.55328333 0.38444328 1.2060002
-0.54508841 0.3847692 1.2024
-0.093182862 0.38453227 1.2037144
-0.088440008 0.38821718 1.2060001
-0.57451546 0.39763546 1.2060001
-0.56597638 0.39770803 1.2054287
-0.55246288 0.39479533 1.2060002
-0.54480165 0.39507329 1.2050771
-0.53478175 0.39576191 1.2024
-0.52659047 0.39952192 1.202
-0.093042545 0.39510825 1.2036667
-0.088440008 0.3916629 1.2060001
-0.55108464 0.40360802 1.2060001
-0.54250866 0.40314862 1.2060002
-0.53592342 0.40291891 1.2060002
-0.52483428 0.40504384 1.2048001
-0.51526541 0.40546519 1.2037778
-0.5040164 0.40765983 1.2044001
-0.49797142 0.40753525 1.202
-0.095498092 0.40407908 1.2045
-0.09402477 0.41585842 1.2040001
-0.094031952 0.42435411 1.2024444
-0.27746764 0.27978954 1.2190001
-0.23102954 0.27978954 1.2190001
-0.22522478 0.27901557 1.219
-0.21736383 0.27864194 1.2140001
-0.20316668 0.27920908 1.2190001
-0.19736192 0.27978954 1.2190001
-0.18226953 0.27978954 1.2190001
-0.17464042 0.27912614 1.219
-0.16756415 0.27901557 1.2190001
-0.30300859 0.28704551 1.219
-0.29369467 0.28651109 1.2160001
-0.28584957 0.2873975 1.2184443
-0.27514574 0.2859813 1.219
-0.26508415 0.28752926 1.219
-0.25490773 0.2873975 1.2184443
-0.24559034 0.28636166 1.2173332
-0.23414235 0.28685406 1.2176363
-0.22446337 0.28504926 1.2152354
-0.21487543 0.2844359 1.2149414
-0.2044231 0.28526664 1.2126957
-0.19463703 0.28500566 1.2164999
-0.18497843 0.28636828 1.219
-0.17530382 0.2855944 1.219
-0.16472937 0.28537202 1.2180625
-0.15547831 0.28639808 1.219
-0.14565489 0.2871125 1.219
-0.13583143 0.28907716 1.2190001
-0.34132004 0.29836479 1.2190001
-0.33443654 0.29783276 1.217889
-0.32622764 0.29836479 1.2190001
-0.31694001 0.29836479 1.2190001
-0.30322677 0.29527339 1.2172143
-0.29425356 0.29519823 1.2142276
-0.28465623 0.29506856 1.215
-0.27515537 0.29531267 1.2172608
-0.26472875 0.29580152 1.2167273
-0.25478238 0.29531002 1.2160001
-0.24503088 0.29472995 1.2136002
-0.23476984 0.29447147 1.2133335
-0.22413008 0.29460651 1.2112
-0.21446928 0.29398787 1.2110525
-0.20408127 0.29440194 1.2106667
-0.19455895 0.29483107 1.2127277
-0.18502788 0.29488838 1.2142502
-0.17537886 0.2947858 1.2151365
-0.16493309 0.29513019 1.2140003
-0.15499286 0.29494807 1.2145002
-0.14488737 0.29498687 1.2154585
-0.13645795 0.29585317 1.2182307
-0.38427526 0.30997431 1.2190001
-0.3757616 0.30997431 1.2190001
-0.36477128 0.30950993 1.2190001
-0.35447749 0.30920035 1.219
-0.34349683 0.30605608 1.219
-0.33433741 0.30482119 1.21525
-0.32577801 0.30557236 1.2173334
-0.31505191 0.30504203 1.2168949
-0.28512558 0.30590254 1.2120801
-0.27488977 0.30491689 1.2127501
-0.26454321 0.30562046 1.2134548
-0.25440499 0.30588192 1.2120001
-0.24435501 0.30429074 1.2102499
-0.23585397 0.30346036 1.21
-0.2241381 0.30350837 1.21
-0.21434288 0.3042286 1.21
-0.20512383 0.30384448 1.21
-0.19438265 0.30367702 1.2102351
-0.18465543 0.30583221 1.2118
-0.17527848 0.30558026 1.2107999
-0.16489942 0.30557981 1.2107997
-0.15449621 0.30553013 1.2105997
-0.14524725 0.30548042 1.2104
-0.12531105 0.30535358 1.2170556
-0.11565913 0.30738065 1.2179285
-0.10564668 0.30904555 1.2190001
-0.42467636 0.31879753 1.2190001
-0.41794288 0.31926194 1.2190001
-0.40285051 0.31926194 1.2190001
-0.39386481 0.31638017 1.2168572
-0.38510084 0.3149361 1.2150526
-0.3747181 0.31465653 1.2154707
-0.36497143 0.31538302 1.2153686
-0.3544789 0.31471887 1.2151766
-0.34454751 0.31522998 1.2133685
-0.33490837 0.31527182 1.2126001
-0.32441035 0.31479445 1.2115
-0.31474626 0.31487173 1.2115557
-0.30531657 0.3156884 1.2102
-0.29513046 0.31588337 1.2105
-0.28602093 0.3155219 1.2100002
-0.26159048 0.31459999 1.21
-0.25726905 0.31431189 1.21
-0.18507239 0.31275618 1.21
-0.17516191 0.31229523 1.21
-0.16380273 0.31295374 1.21
-0.15365081 0.31498411 1.21
-0.14520001 0.31575239 1.21
-0.13464157 0.31526986 1.2110431
-0.12502286 0.31470016 1.2135295
-0.11471643 0.31519645 1.21675
-0.10440327 0.31553474 1.2180625
-0.098100483 0.31635955 1.2190001
-0.47327939 0.32849345 1.2175714
-0.44406435 0.32767883 1.219
-0.4341962 0.32680812 1.219
-0.42483962 0.32522094 1.2162223
-0.41555849 0.32588553 1.2166088
-0.40520564 0.3252247 1.2170001
-0.39502954 0.32496271 1.2133685
-0.38480881 0.32471615 1.2133602
-0.37510359 0.32431659 1.2118665
-0.36561307 0.32445398 1.2116666
-0.35504848 0.32408386 1.2121818
-0.34520838 0.32489336 1.2102501
-0.33546415 0.32478949 1.2099999
-0.32497144 0.32266667 1.21
-0.31575236 0.32447752 1.21
-0.30663812 0.32486671 1.21
-0.29270476 0.32151428 1.21
-0.15096191 0.32151428 1.21
-0.14558414 0.32151428 1.21
-0.13384083 0.32217279 1.21
-0.12438204 0.32434016 1.2110525
-0.11537651 0.32476631 1.2143811
-0.10505556 0.32519212 1.2144169
-0.095992193 0.32597333 1.2163334
-0.50246596 0.33661765 1.21775
-0.49583736 0.3375122 1.217
-0.48444879 0.33675316 1.2178888
-0.47507459 0.33481398 1.2156668
-0.45506898 0.33573794 1.2125001
-0.44491091 0.33492309 1.2142757
-0.43497497 0.3351903 1.214409
-0.42507479 0.33603057 1.2133685
-0.39526665 0.33534285 1.2099998
-0.38513404 0.33439547 1.2107501
-0.37654826 0.33351335 1.2103335
-0.36568889 0.33111748 1.21
-0.35608575 0.33073336 1.21
-0.34364003 0.33303809 1.21
-0.33735955 0.33303812 1.21
-0.12215238 0.33303812 1.21
-0.11497311 0.33469099 1.2102499
-0.094854593 0.3355526 1.2138423
-0.08716543 0.33448106 1.2178462
-0.5421648 0.34828573 1.2190001
-0.53548932 0.34828573 1.219
-0.52504289 0.34887335 1.217
-0.51378602 0.34660879 1.219
-0.50508446 0.34469834 1.2156316
-0.49450442 0.34459281 1.2143811
-0.48506561 0.34504503 1.2134212
-0.47540879 0.34501296 1.2115997
-0.46563873 0.34548387 1.2100002
-0.45559719 0.34510416 1.21
-0.44527999 0.34410101 1.21
-0.4350467 0.3427732 1.2110909
-0.42517611 0.34462801 1.2102351
-0.41485715 0.3457143 1.21
-0.4056381 0.3457143 1.21
-0.3969129 0.34423271 1.21
-0.10448255 0.3457143 1.2099999
-0.094644196 0.34508789 1.2129333
-0.086558796 0.34477034 1.2183334
-0.5839591 0.35873431 1.2190001
-0.57558751 0.35890251 1.2180002
-0.56352693 0.35704592 1.2179999
-0.55493867 0.35622725 1.218375
-0.54583609 0.35632163 1.2175714
-0.53512359 0.35514322 1.2140003
-0.52474916 0.35445458 1.2139001
-0.51537251 0.35513002 1.2130499
-0.50488317 0.35411239 1.211524
-0.49520248 0.35408852 1.2105334
-0.48577446 0.35251355 1.2104001
-0.47461632 0.35246396 1.21
-0.46786666 0.35147619 1.21
-0.45864764 0.35147619 1.21
-0.41600955 0.35147619 1.21
-0.40794286 0.35147619 1.21
-0.10256191 0.35279322 1.21
-0.094491132 0.35469827 1.2123158
-0.086533733 0.35565501 1.2179999
-0.59288317 0.36659417 1.2175714
-0.58506072 0.36538726 1.2155626
-0.57491243 0.36474031 1.2161155
-0.56470048 0.36540675 1.2157648
-0.55478412 0.36554074 1.2137144
-0.54548508 0.3660309 1.2127727
-0.53514409 0.36564398 1.2121818
-0.5252552 0.36484379 1.2100002
-0.51577282 0.36299998 1.21
-0.50820005 0.36069524 1.21
-0.49744448 0.36223173 1.21
-0.093366019 0.36433274 1.2103077
-0.085854642 0.36506531 1.2156842
-0.60182816 0.37487581 1.2175715
-0.59522748 0.37485006 1.2163531
-0.58485925 0.37497041 1.2131113
-0.57505572 0.37524363 1.213048
-0.56531781 0.3743192 1.213294
-0.55553627 0.37541026 1.21
-0.54651672 0.37337145 1.21
-0.5347048 0.37221906 1.21
-0.0910381 0.37567621 1.21
-0.085394874 0.37499487 1.2136111
-0.58481437 0.38491625 1.2132499
-0.574929 0.38559452 1.2121999
-0.56490487 0.38429251 1.2113334
-0.55890477 0.3872 1.21
-0.0910381 0.38143811 1.21
-0.085175 0.38461149 1.21275
-0.5749948 0.39382648 1.210421
-0.56409997 0.39473814 1.2102666
-0.557917 0.39526668 1.21
-0.086575344 0.39549023 1.2121
-0.26059145 0.25825432 1.2270001
-0.25669622 0.25747526 1.2270001
-0.19515145 0.25825432 1.2270001
-0.17645431 0.25825432 1.2270001
-0.14840858 0.25825432 1.2270001
-0.31668288 0.26994005 1.2270001
-0.29421037 0.26724336 1.2270001
-0.28505358 0.26666802 1.227
-0.27519858 0.26721334 1.2270001
-0.26551175 0.26588082 1.2269999
-0.25518811 0.26569271 1.2251999
-0.24812667 0.26721337 1.2270001
-0.23371431 0.26877147 1.2270001
-0.22527462 0.26812229 1.2270001
-0.2173543 0.26994005 1.2270001
-0.20372097 0.26799241 1.2270001
-0.19506848 0.26515096 1.226478
-0.18482667 0.26607683 1.2265555
-0.17502916 0.2648724 1.2251999
-0.16472469 0.26519534 1.2266798
-0.15425144 0.26526576 1.2269999
-0.14490287 0.2652657 1.2269999
-0.1365431 0.26634443 1.2270001
-0.12784174 0.26900518 1.2270001
-0.34706575 0.27928859 1.2270001
-0.31551433 0.27578288 1.227
-0.30546129 0.27599201 1.2267777
-0.29440212 0.27586079 1.227
-0.28507408 0.27572599 1.22675
-0.27533332 0.27532956 1.225
-0.26505542 0.27512237 1.2248945
-0.25494552 0.27582839 1.2262942
-0.24563374 0.27601659 1.227
-0.23539291 0.275204 1.225353
-0.22460197 0.27494022 1.2241764
-0.21509989 0.27595907 1.2255715
-0.20543437 0.27512684 1.2251333
-0.19489279 0.27488798 1.2238419
-0.18462572 0.27545798 1.224647
-0.1748807 0.27438465 1.2229998
-0.1644071 0.27479315 1.2243333
-0.15441631 0.27566823 1.2255882
-0.14490286 0.27578285 1.227
-0.13555431 0.27578285 1.227
-0.12528317 0.27596742 1.2269999
-0.116156 0.27835375 1.2270001
-0.34628668 0.28746858 1.2270001
-0.33421147 0.28863716 1.2270001
-0.32416174 0.28653371 1.2270001
-0.31532121 0.28495505 1.2262501
-0.30606347 0.28337309 1.2244545
-0.29534748 0.28253129 1.2233334
-0.28460512 0.28290886 1.2233635
-0.27313668 0.28129002 1.223
-0.26524806 0.28282538 1.2229999
-0.25605348 0.28264889 1.2229999
-0.24477759 0.28290889 1.2233635
-0.23644668 0.28303716 1.223
-0.21315141 0.28070763 1.223
-0.20849238 0.28070763 1.223
-0.19335049 0.28070763 1.223
-0.18819225 0.28270435 1.2230002
-0.16306667 0.28070763 1.223
-0.15496795 0.28184497 1.2234445
-0.14396457 0.28257126 1.2229999
-0.13541549 0.28483787 1.22575
-0.12499523 0.28503737 1.2265999
-0.11452001 0.28513142 1.227
-0.10610628 0.2863 1.2270001
-0.37511146 0.29720673 1.2270001
-0.3644245 0.29617649 1.2264286
-0.35524574 0.29448003 1.227
-0.34510666 0.29433659 1.2261578
-0.3339211 0.29326317 1.2247143
-0.32419959 0.29462212 1.224263
-0.31441048 0.29454061 1.2234209
-0.30866191 0.29352003 1.223
-0.13200635 0.29429653 1.223
-0.12515575 0.29467192 1.2242172
-0.11512562 0.29489103 1.2265555
-0.10517144 0.29448003 1.227
-0.096524008 0.29588231 1.2270001
-0.089200966 0.29720673 1.2270001
-0.45691147 0.30967146 1.2270001
-0.43120289 0.30967146 1.2270001
-0.42523018 0.30785367 1.2270001
-0.41515449 0.30608782 1.227
-0.40466949 0.30568451 1.227
-0.39489928 0.30639941 1.227
-0.38502076 0.30523691 1.2258887
-0.37519234 0.3042227 1.2251816
-0.36505359 0.30445018 1.2237058
-0.35525122 0.30417237 1.2241427
-0.34802574 0.30280098 1.2238001
-0.32221431 0.30277875 1.2243334
-0.12462953 0.30167335 1.223
-0.11437264 0.30268717 1.2246
-0.10483313 0.30386719 1.2245555
-0.095758475 0.30479637 1.2261999
-0.087809809 0.30466327 1.2270001
-0.5036543 0.31902003 1.2270001
-0.49586388 0.31902003 1.2270001
-0.48262003 0.3176845 1.2270001
-0.47433385 0.31689537 1.2270001
-0.46509147 0.31668288 1.2270001
-0.45540902 0.31601518 1.2270001
-0.44684374 0.31632328 1.2270001
-0.43416205 0.3157883 1.2265557
-0.42545432 0.31507772 1.2247499
-0.41494495 0.31522074 1.2265788
-0.4047384 0.31492275 1.2247143
-0.39638191 0.31342265 1.2233999
-0.38553619 0.31099144 1.223
-0.37505335 0.31099144 1.223
-0.10133429 0.31099144 1.223
-0.09502396 0.31451067 1.2248462
-0.087876573 0.31621546 1.2270001
-0.53247911 0.32758954 1.2270001
-0.52484441 0.32556406 1.227
-0.50287527 0.32525241 1.2270001
-0.49547434 0.32486287 1.227
-0.48551559 0.32527339 1.2261111
-0.47488207 0.32357857 1.2232498
-0.46536672 0.32563785 1.2251666
-0.45506865 0.32516727 1.2246841
-0.44525197 0.32315981 1.2236152
-0.43593863 0.3224273 1.2229999
-0.4134905 0.32030952 1.223
-0.40883145 0.32030952 1.223
-0.093433335 0.32293946 1.2241429
-0.086154103 0.32582644 1.2257998
-0.077125721 0.32836857 1.2270001
-0.56558859 0.33771718 1.2270001
-0.55406988 0.33704942 1.2270001
-0.54396999 0.33625647 1.2270001
-0.53520572 0.33421144 1.227
-0.5246886 0.33421141 1.2269999
-0.51416725 0.33532983 1.2250001
-0.50599921 0.3331835 1.2246667
-0.49500307 0.3333616 1.224647
-0.48682627 0.33226517 1.2241429
-0.46008098 0.33195716 1.223
-0.45775142 0.33195716 1.223
-0.081639245 0.33472022 1.2246001
-0.075957149 0.33421144 1.2270001
-0.58155912 0.34667623 1.2270001
-0.57462478 0.3457073 1.2263335
-0.56536323 0.34458268 1.2253636
-0.55508292 0.34417683 1.2261302
-0.54489917 0.34376878 1.2254443
-0.53517282 0.34363985 1.2254443
-0.52515501 0.344264 1.2253635
-0.51732075 0.34427032 1.2230002
-0.081404492 0.34509757 1.2235715
-0.077904761 0.34472859 1.2270001
-0.59414232 0.35723144 1.2266001
-0.58457911 0.35497162 1.2248824
-0.5758816 0.35532618 1.2248666
-0.56558806 0.3528319 1.2233075
-0.55472827 0.35156098 1.2236668
-0.54782635 0.35136986 1.223
-0.081275001 0.3545222 1.2235001
-0.078294292 0.35641432 1.2270001
-0.59661943 0.36341047 1.2243333
-0.080368571 0.36573526 1.223
-0.077256203 0.36492261 1.2264287
-0.080368571 0.37505332 1.223
-0.26014858 0.23896001 1.2360001
-0.25355658 0.23848915 1.2360001
-0.24837716 0.23896001 1.2360001
-0.23189715 0.23660572 1.2360001
-0.22416164 0.23795104 1.2360001
-0.21777143 0.23778287 1.2360001
-0.1753943 0.23837143 1.2360001
-0.1648 0.23896001 1.2360001
-0.27346575 0.24758573 1.2350001
-0.26532453 0.24679977 1.2347502
-0.25554597 0.24504037 1.2321907
-0.24592865 0.24629915 1.2330528
-0.23454043 0.24629661 1.2348573
-0.22478664 0.24555749 1.2346668
-0.21433601 0.24586061 1.2352002
-0.20459183 0.24574041 1.2346002
-0.19512059 0.24565999 1.2342002
-0.18642478 0.24582094 1.2350001
-0.1745382 0.24623689 1.2360001
-0.16444653 0.24601527 1.234737
-0.15585063 0.24596491 1.2357143
-0.14596573 0.24720001 1.2360001
-0.13419428 0.24837716 1.2360001
-0.33077714 0.25779429 1.2360001
-0.32512686 0.25638169 1.2360001
-0.31429714 0.25685257 1.2360001
-0.30500364 0.25686166 1.2356365
-0.29459813 0.25762632 1.234182
-0.28436506 0.25629157 1.2341179
-0.27507508 0.25516132 1.2334739
-0.26540804 0.25555199 1.2320002
-0.25533539 0.25515491 1.2320002
-0.24551502 0.25528058 1.2328423
-0.23487127 0.25503305 1.2327061
-0.22528002 0.25578669 1.2320002
-0.21478602 0.25558496 1.2323812
-0.20416 0.25578666 1.2320002
-0.19460574 0.2552838 1.2320002
-0.18492413 0.25498849 1.2326318
-0.17464265 0.25479013 1.2328697
-0.16426668 0.25578666 1.2320002
-0.15477355 0.25498852 1.2326318
-0.14521144 0.25446972 1.2336001
-0.1348816 0.25508097 1.2333335
-0.12516461 0.2548278 1.2350589
-0.11683143 0.25544 1.2360001
-0.37158477 0.26878098 1.2360001
-0.3649143 0.26956573 1.2360001
-0.35353521 0.26799619 1.2360001
-0.34519795 0.26669657 1.2344617
-0.33569464 0.26726285 1.2353334
-0.3246862 0.26538667 1.2342224
-0.31470922 0.26421088 1.2330003
-0.30526459 0.26446939 1.2330528
-0.29618287 0.26265904 1.2320002
-0.28424001 0.26312006 1.2320002
-0.27534226 0.26243556 1.2320002
-0.26634666 0.26165336 1.2320001
-0.25344002 0.26165336 1.2320001
-0.24409737 0.26431835 1.2328891
-0.23499694 0.26370376 1.2323079
-0.22453333 0.26399997 1.2320002
-0.21471998 0.26517338 1.2320002
-0.20533332 0.26423469 1.2320002
-0.18577778 0.26243559 1.2320001
-0.13305601 0.26423466 1.2320002
-0.12395991 0.2644251 1.2327061
-0.11617214 0.26498786 1.2352501
-0.10437334 0.26917332 1.2360001
-0.092994295 0.26485717 1.2360001
-0.38100192 0.27819809 1.2360001
-0.37407213 0.27525851 1.2351429
-0.3648437 0.2753419 1.2345884
-0.35457322 0.27514923 1.2336003
-0.34467831 0.27488828 1.2343159
-0.33559021 0.27576858 1.2356668
-0.32584158 0.27435294 1.2320002
-0.31328002 0.27104002 1.2320001
-0.30389336 0.27221334 1.2320002
-0.29685333 0.27573335 1.2320001
-0.24288002 0.27162668 1.2320001
-0.21284267 0.27197868 1.2320001
-0.12163556 0.27182224 1.2320001
-0.1146773 0.27412 1.2322859
-0.10461048 0.27504784 1.2342002
-0.094825402 0.27715176 1.2360001
-0.45320001 0.28839999 1.2360001
-0.44613716 0.28839999 1.2360001
-0.41223544 0.28651658 1.2360001
-0.40405992 0.28678697 1.2348573
-0.39515439 0.28729036 1.2348573
-0.38505715 0.28544924 1.2343638
-0.37477031 0.28542176 1.2328002
-0.36465341 0.28534216 1.232522
-0.35473782 0.28472888 1.2320002
-0.34441248 0.28449428 1.2320002
-0.33584574 0.28417525 1.2330002
-0.32689071 0.28253871 1.2320002
-0.11146668 0.28042668 1.2320001
-0.10424277 0.28264281 1.2323638
-0.094933502 0.28558239 1.2331669
-0.085034929 0.28645611 1.2344002
-0.078804769 0.28698763 1.2350001
-0.4743886 0.29781714 1.2360001
-0.46477523 0.2956591 1.2360001
-0.45383421 0.29516512 1.2347693
-0.4447864 0.29514205 1.2333915
-0.43505809 0.29539022 1.2344002
-0.42493197 0.29615647 1.2340002
-0.4150342 0.29487824 1.2330528
-0.40497476 0.29544544 1.2321907
-0.39424005 0.29568008 1.2320002
-0.38535619 0.2953448 1.2320002
-0.3758578 0.29470226 1.2320002
-0.36608002 0.29216003 1.2320001
-0.093866684 0.29333335 1.2320002
-0.084203586 0.29515216 1.2322502
-0.075849533 0.29534939 1.2334287
-0.069451429 0.29546288 1.2360001
-0.51558864 0.30958858 1.2360001
-0.50420958 0.30919617 1.2360001
-0.49428368 0.30674705 1.2349092
-0.48482937 0.30612513 1.2344615
-0.47499108 0.3049019 1.2342002
-0.46496597 0.30433279 1.2338002
-0.45549673 0.30483633 1.2324709
-0.44490951 0.30521393 1.2326002
-0.43542528 0.30453146 1.2340002
-0.42541128 0.30386403 1.2326156
-0.41379559 0.30389336 1.2320002
-0.40304002 0.30213335 1.2320001
-0.39494404 0.30201602 1.2320001
-0.38837335 0.30154669 1.2320001
-0.082133345 0.30506667 1.2320002
-0.075178713 0.30480832 1.2345884
-0.55561149 0.31900573 1.2360001
-0.53371656 0.31853488 1.2360001
-0.52466667 0.31597489 1.2352002
-0.51512802 0.31505141 1.2333335
-0.50494289 0.3147057 1.2330002
-0.49514675 0.31445336 1.2320002
-0.48639181 0.31382161 1.2320002
-0.47541335 0.31242669 1.2320002
-0.46464005 0.3121067 1.2320002
-0.45525339 0.31152004 1.2320001
-0.44368765 0.31361526 1.2320002
-0.43718401 0.31374937 1.2320001
-0.42357337 0.31562668 1.2320001
-0.41418669 0.31093338 1.2320001
-0.08330667 0.31445336 1.2320002
-0.076728314 0.31558132 1.2360001
-0.58150858 0.32842287 1.2360001
-0.57383931 0.32867962 1.2352002
-0.56503832 0.32752973 1.2334548
-0.55528164 0.32572839 1.2335654
-0.54504955 0.32605907 1.2340001
-0.53557628 0.32412222 1.2323335
-0.52536005 0.32237333 1.2320002
-0.51509345 0.32501334 1.2320002
-0.50711471 0.32313603 1.2320001
-0.49397337 0.32032001 1.2320001
-0.081546672 0.32266667 1.2320001
-0.074884236 0.32472554 1.2328891
-0.069451429 0.3252838 1.2360001
-0.59445715 0.33784002 1.2360001
-0.58503807 0.33466381 1.2350477
-0.57505596 0.33527964 1.2327061
-0.56545645 0.33476108 1.2320002
-0.55557334 0.33381334 1.2320002
-0.54638225 0.33361781 1.2320002
-0.51587558 0.33205336 1.2320001
-0.071573339 0.33557338 1.2320001
-0.069451429 0.33430859 1.2360001
-0.58566689 0.34346011 1.2323638
-0.57728004 0.34261337 1.2320001
-0.073990487 0.34482783 1.2332002
-0.069451429 0.34372574 1.2360001
-0.075189337 0.35504079 1.2336001
-0.17010191 0.19746095 1.2490001
-0.16494732 0.19785745 1.2490001
-0.15424158 0.19706444 1.2490001
-0.24432822 0.20602556 1.2490002
-0.23552573 0.20578764 1.2490002
-0.22549975 0.20748696 1.249
-0.20420159 0.20816667 1.2490001
-0.1955917 0.20714709 1.249
-0.18627945 0.20769086 1.2490001
-0.17347223 0.20558937 1.2490002
-0.16415429 0.20459808 1.2490003
-0.1545466 0.20542161 1.2490003
-0.14501376 0.2060039 1.2490002
-0.13560574 0.20578764 1.2490002
-0.12767556 0.20658064 1.2490001
-0.29262286 0.21768287 1.2490001
-0.2846927 0.21688986 1.2490001
-0.27556443 0.21653739 1.2486364
-0.26446164 0.21724232 1.2484286
-0.25343868 0.21582521 1.2482729
-0.24468859 0.21498895 1.2472003
-0.23511143 0.21492001 1.2468002
-0.22495003 0.21471971 1.2474351
-0.21466573 0.21704204 1.247286
-0.20463024 0.21526301 1.2474765
-0.19486305 0.21505868 1.2476003
-0.18517885 0.21485147 1.2464002
-0.17482238 0.21481477 1.2473338
-0.1644721 0.21442272 1.248765
-0.15431958 0.21469685 1.2485558
-0.14530383 0.2144227 1.248765
-0.13560574 0.21411429 1.2490003
-0.12727904 0.2133573 1.2490002
-0.11379778 0.21292476 1.2490001
-0.33346319 0.22878508 1.2490001
-0.32236099 0.22957809 1.2490001
-0.31284475 0.22838859 1.2490001
-0.30428022 0.22624744 1.2490003
-0.29481405 0.22507048 1.2490003
-0.28544059 0.2247833 1.2488004
