# .PCD v0.7 - Point Cloud Data file format
VERSION 0.7
FIELDS x y z
SIZE 4 4 4
TYPE F F F
COUNT 1 1 1
WIDTH 1532
HEIGHT 1
VIEWPOINT 0 0 0 1 0 0 0
POINTS 1532
DATA ascii
0.51451302 0.33361557 1.219
0.52126765 0.33087146 1.2190001
0.10719461 0.34673783 1.219
0.11029048 0.34596384 1.2190001
0.19820952 0.3468667 1.21
0.20281903 0.3468667 1.21
0.22010475 0.3468667 1.21
0.45672697 0.34430584 1.21
0.46469763 0.34485 1.21
0.48745713 0.34917143 1.21
0.49881524 0.34599906 1.2110001
0.50490224 0.34525153 1.2159284
0.51529706 0.34530044 1.219
0.52312517 0.34619603 1.2190001
0.53055531 0.34364194 1.2190001
0.08939334 0.35641241 1.2190001
0.092644006 0.35594803 1.2190001
0.10448572 0.35447749 1.219
0.1458524 0.35885859 1.2155001
0.15787619 0.35839048 1.21
0.16555397 0.35788777 1.2141666
0.19651763 0.35581097 1.2120001
0.20355837 0.35660082 1.2134285
0.47732326 0.3553921 1.2130768
0.48557559 0.35525444 1.2137897
0.49287778 0.35621411 1.212
0.50783122 0.35501286 1.21325
0.5147894 0.35457471 1.2176154
0.5236696 0.35567194 1.2165002
0.10425353 0.36384249 1.2190001
0.13989906 0.36304384 1.2140001
0.14504257 0.36471441 1.2153158
0.15449062 0.36460516 1.213143
0.16582286 0.36492175 1.2145883
0.17495652 0.36551601 1.2145627
0.18596858 0.36502191 1.2103335
0.19376314 0.36573723 1.2106314
0.20372078 0.36327508 1.214
0.47698224 0.36149016 1.2126669
0.48496589 0.36484784 1.2103999
0.49206671 0.36453652 1.21
0.50704765 0.36069524 1.21
0.5154593 0.36594599 1.2133077
0.52408326 0.36469683 1.2156667
0.53289992 0.3662256 1.2181667
0.10796858 0.37498763 1.2190001
0.11203191 0.37556812 1.2190001
0.12886572 0.37963146 1.2190001
0.13722457 0.37591642 1.2190001
0.14511293 0.37600708 1.2179474
0.15530661 0.37385836 1.2163334
0.16571663 0.37409273 1.2168499
0.17551957 0.37474126 1.2118461
0.18478024 0.37601408 1.2139412
0.19375715 0.37368003 1.2110001
0.23700635 0.37836507 1.21
0.24459286 0.37769288 1.21
0.25179526 0.37682858 1.21
0.47823811 0.37337142 1.21
0.48482895 0.37571448 1.2118182
0.51733309 0.37305227 1.2105714
0.52402753 0.37331611 1.212625
0.53155041 0.37366083 1.219
0.13815333 0.38311434 1.2190001
0.14412396 0.38294846 1.219
0.16887875 0.38761333 1.2173334
0.17525296 0.38420257 1.2148824
0.18424684 0.38313541 1.2141668
0.19770859 0.38963622 1.2140001
0.20534232 0.3884275 1.2122858
0.21434286 0.38835239 1.21
0.22471429 0.38835239 1.21
0.23623809 0.38143811 1.21
0.24545716 0.38143811 1.21
0.25326613 0.38410208 1.2111429
0.48655039 0.3834554 1.2147777
0.49299178 0.38416317 1.2113334
0.51779109 0.38843748 1.2126667
0.52516317 0.38511765 1.21525
0.53387225 0.38576791 1.219
0.54332578 0.38775814 1.2190001
0.16833812 0.39472383 1.2190001
0.17298192 0.39124098 1.2190001
0.1956104 0.39586344 1.21775
0.2033297 0.39641941 1.2164999
0.21442002 0.39523715 1.2170001
0.2234146 0.39487648 1.2123333
0.24660952 0.39987621 1.21
0.25467619 0.39504713 1.2099998
0.26290751 0.39757141 1.21
0.46671429 0.39987621 1.21
0.48294628 0.3947888 1.210889
0.51818734 0.39296189 1.21
0.52566212 0.39462039 1.2167691
0.53323442 0.39499173 1.219
0.22411212 0.40424511 1.2133532
0.2347032 0.40629977 1.2129091
0.24522763 0.40570039 1.2130001
0.25494397 0.40527678 1.2128571
0.26544124 0.40439844 1.2103636
0.48592064 0.40755871 1.21
0.52837908 0.40119812 1.2140001
0.53369659 0.40152416 1.2173334
0.28118098 0.41831428 1.21
0.4890686 0.41160387 1.2140001
0.41016859 0.12503716 1.2270001
0.4382143 0.12270001 1.2270001
0.44055146 0.12270001 1.2270001
0.35758287 0.13906002 1.2270001
0.36529547 0.13695659 1.2270001
0.37447801 0.13704756 1.2266924
0.38374346 0.13803449 1.2262001
0.40783146 0.13321716 1.2270001
0.41340461 0.13476554 1.2262001
0.28396291 0.14840858 1.2270001
0.29297757 0.14640532 1.2270001
0.30499715 0.14840858 1.2270001
0.31434575 0.14840858 1.2270001
0.3488186 0.14665572 1.2270001
0.35575646 0.14531083 1.22675
0.36465693 0.14469312 1.2252499
0.37453419 0.14447391 1.2251176
0.38489106 0.14470601 1.2260771
0.39147148 0.14840858 1.2270001
0.41566953 0.14828762 1.2260002
0.42047906 0.14676 1.223
0.24656861 0.15658858 1.2270001
0.26760289 0.15425143 1.2270001
0.27753574 0.15542001 1.2270001
0.285521 0.15425144 1.2270001
0.29408115 0.15403065 1.2233999
0.3059811 0.15408039 1.2244999
0.31524903 0.15501159 1.2257367
0.32423857 0.15434816 1.2236664
0.33515498 0.15476017 1.2233332
0.34474677 0.15156266 1.2252222
0.3563472 0.15440251 1.2244117
0.36467126 0.15251507 1.224
0.37652764 0.15154192 1.2240001
0.38468477 0.15270667 1.224
0.39531708 0.15443625 1.2254002
0.40485361 0.15623634 1.2255715
0.41424015 0.15363631 1.2252221
0.42140716 0.1521243 1.2240001
0.44990003 0.15658858 1.2270001
0.45270461 0.15448515 1.2270001
0.26844239 0.16573097 1.2255001
0.27556396 0.16570203 1.2252858
0.28551027 0.16634409 1.2266924
0.29080224 0.1653962 1.223
0.31239948 0.16480711 1.2234445
0.39601907 0.1653962 1.223
0.40358999 0.165105 1.223
0.4149729 0.16634919 1.2229999
0.42164379 0.16889048 1.223
0.44990003 0.16398954 1.2270001
0.45504177 0.16554761 1.227
0.46158576 0.1682743 1.2270001
0.22787145 0.17879145 1.2270001
0.23410814 0.1752883 1.2253999
0.2453472 0.17535737 1.2247779
0.25505224 0.17665081 1.2256669
0.26357752 0.17517582 1.2246001
0.29119051 0.17122 1.223
0.3121562 0.17122 1.223
0.39796031 0.17471428 1.223
0.40543216 0.17458953 1.2232856
0.41518369 0.17467259 1.2243332
0.42299226 0.17570436 1.2264287
0.43120289 0.17879145 1.2270001
0.45457432 0.17178002 1.2270001
0.46158576 0.17879145 1.2270001
0.20800573 0.18580288 1.2270001
0.21268001 0.18697144 1.2270001
0.22731923 0.18616217 1.2251818
0.23421723 0.18574333 1.2235334
0.24522719 0.1866307 1.2229998
0.25342911 0.18482506 1.223857
0.27604857 0.18985622 1.223
0.28350306 0.18939027 1.223
0.39834857 0.1805381 1.223
0.40723372 0.18391752 1.2238001
0.41383448 0.1843905 1.2254001
0.42624745 0.18381201 1.2262002
0.43461239 0.18759315 1.2234445
0.4451834 0.18624727 1.2263849
0.4519276 0.18869144 1.223
0.46439034 0.1867377 1.2270001
0.2025 0.19861239 1.2243334
0.21501715 0.19300906 1.2270001
0.22462319 0.19336794 1.2245998
0.23547526 0.19583954 1.2239997
0.24460001 0.19567998 1.2229998
0.25042382 0.19451524 1.223
0.27651447 0.19498117 1.223
0.2842598 0.19572072 1.2232499
0.43586057 0.19269703 1.2241429
0.44549707 0.19310468 1.2248183
0.45638108 0.19554895 1.22675
0.46544573 0.1960126 1.2258887
0.4739936 0.19536185 1.226077
0.19982572 0.20683718 1.2270001
0.2053322 0.20650002 1.2250001
0.23644668 0.20266859 1.223
0.24382348 0.20228033 1.223
0.2783781 0.20266858 1.223
0.28324285 0.20398062 1.223889
0.44377428 0.20383334 1.223
0.4559167 0.20483539 1.2257693
0.46557009 0.20533527 1.2265555
0.47397262 0.20636971 1.2270001
0.48145145 0.20917431 1.2270001
0.17879145 0.21852288 1.2270001
0.18578736 0.21744914 1.2247144
0.19600199 0.21546751 1.2264668
0.20532954 0.21466666 1.2249999
0.46509147 0.21151145 1.2270001
0.4751412 0.21291375 1.2270001
0.48599592 0.21488732 1.2270001
0.49233338 0.2169981 1.2250001
0.5036543 0.21852288 1.2270001
0.1682743 0.22670287 1.2270001
0.17525305 0.22425482 1.2251333
0.18517129 0.22412612 1.2235712
0.19531824 0.22345689 1.223857
0.20383334 0.2228931 1.2229999
0.21781048 0.22945811 1.223
0.22479907 0.22246952 1.223
0.47623333 0.22494307 1.2238001
0.4831394 0.22267778 1.2270001
0.49152952 0.22014 1.223
0.50566155 0.22351448 1.2262002
0.5223515 0.22086002 1.2270001
0.14439368 0.23511191 1.2267647
0.15408449 0.23521674 1.2270001
0.16788477 0.23176669 1.2270001
0.17567523 0.2337143 1.2270001
0.18388288 0.23442039 1.2246
0.44493905 0.23411717 1.223
0.47725153 0.23480245 1.223889
0.48426929 0.23571537 1.2248667
0.49313718 0.2383886 1.2270001
0.50477028 0.23375991 1.2265557
0.51066571 0.23020859 1.2270001
0.13906002 0.24423145 1.2270001
0.14490287 0.24364716 1.2270001
0.15658858 0.24890572 1.2270001
0.16471335 0.24765602 1.2266002
0.17548436 0.24629895 1.2256668
0.18205389 0.24266115 1.2238001
0.47687262 0.24382594 1.2235
0.48425838 0.24461025 1.2245002
0.49441585 0.24312858 1.2238001
0.5036543 0.24656861 1.2270001
0.10750858 0.25358003 1.2270001
0.11218287 0.25358003 1.2270001
0.14724001 0.25591719 1.2270001
0.15468042 0.25496218 1.2264287
0.16483371 0.25478882 1.225857
0.1716859 0.25321925 1.223
0.4884629 0.25708574 1.2270001
0.49394879 0.25523889 1.2246667
0.50479621 0.25566611 1.2258003
0.51066571 0.25591719 1.2270001
0.12673771 0.26912212 1.2254002
0.13441351 0.26859409 1.223
0.14560263 0.26756501 1.2255002
0.15422687 0.26522174 1.2267998
0.16443974 0.26550773 1.2255882
0.49490231 0.26740193 1.2250001
0.50355315 0.26542318 1.2248666
0.098549537 0.27773049 1.2270001
0.10244477 0.27850953 1.2270001
0.11802572 0.27695146 1.2270001
0.12495308 0.27536911 1.2262001
0.13561176 0.27519053 1.2254002
0.14457594 0.27516595 1.22425
0.15410262 0.27441236 1.2234999
0.16306667 0.27138954 1.223
0.46939906 0.2783781 1.223
0.47289336 0.2783781 1.223
0.50667143 0.27138954 1.223
0.11298191 0.28769621 1.223
0.13789144 0.28162575 1.2270001
0.14564648 0.28406155 1.2254001
0.15394269 0.28497842 1.2229999
0.16656096 0.28769621 1.223
0.46939906 0.28303716 1.223
0.47550577 0.2842811 1.2243333
0.48467585 0.28606859 1.2243334
0.49538225 0.28339553 1.2229998
0.50608903 0.28653145 1.223
0.51598954 0.28769621 1.223
0.52221698 0.28636071 1.2260001
0.10599334 0.29934382 1.223
0.11360359 0.29562396 1.223923
0.12036287 0.29798576 1.2270001
0.13859259 0.2937789 1.2270001
0.14472573 0.29411954 1.2255
0.15390535 0.29357749 1.2248666
0.16533573 0.2937597 1.224
0.4765805 0.29195693 1.2250001
0.48104668 0.29119051 1.223
0.49898008 0.29448003 1.2270001
0.50154895 0.29416004 1.2256669
0.51598954 0.29119051 1.223
0.52379709 0.29220286 1.2259094
0.53370327 0.2956486 1.2270001
0.099328585 0.3073343 1.2270001
0.10483984 0.30450955 1.223941
0.11531143 0.30213928 1.223
0.12463871 0.30496737 1.2251819
0.13574906 0.30694482 1.2270001
0.14485641 0.30489621 1.2265999
0.15481408 0.30521971 1.2263331
0.16306667 0.30516762 1.223
0.52880192 0.30749714 1.223
0.53267783 0.30855843 1.2256669
0.097920962 0.31415763 1.2240001
0.1032642 0.31539258 1.2238001
0.12665518 0.31542441 1.2270001
0.13544287 0.31525481 1.2260001
0.14441925 0.3150416 1.2248667
0.15599214 0.31654122 1.2248183
0.16458786 0.31432217 1.2234999
0.17401543 0.31751412 1.223
0.1805381 0.31798002 1.223
0.52659154 0.31585133 1.2247779
0.53228432 0.31376147 1.2270001
0.096945174 0.32688016 1.2264287
0.10266604 0.32316542 1.2250001
0.12854287 0.3248629 1.2270001
0.13490982 0.32477313 1.2236152
0.14501286 0.32613337 1.223
0.15025429 0.32496858 1.223
0.17587906 0.32030952 1.223
0.1805381 0.32147431 1.223
0.51366001 0.32030952 1.223
0.52681679 0.32517886 1.2238001
0.095822856 0.33304286 1.2270001
0.12971143 0.33187431 1.2270001
0.13794382 0.33213964 1.2254002
0.14108984 0.33231652 1.2243334
0.51831907 0.33661619 1.223
0.52574444 0.33617944 1.2229998
0.53333932 0.33447522 1.2254002
0.089980014 0.3494029 1.2270001
0.093180954 0.3482638 1.223
0.10867715 0.34122288 1.2270001
0.11443642 0.3451041 1.2251539
0.12036287 0.34823433 1.2270001
0.13438572 0.3494029 1.2270001
0.50900102 0.3459343 1.223
0.51399279 0.3459343 1.2230002
0.52592885 0.34438124 1.2229998
0.53477049 0.34094381 1.2260001
0.086739659 0.35493037 1.2262729
0.096385211 0.35470766 1.2232665
0.10444031 0.35654655 1.223
0.11438085 0.35479817 1.2241111
0.12478636 0.35621941 1.2245554
0.13487016 0.3553783 1.2243334
0.52880192 0.35059336 1.223
0.086307354 0.36242411 1.2270001
0.096212387 0.36342576 1.2270001
0.10704231 0.36407307 1.2235715
0.11496478 0.36472952 1.2255
0.12417524 0.36621848 1.2254002
0.13605493 0.36666214 1.2256669
0.10733144 0.37333336 1.2250001
0.11470394 0.37432516 1.2264668
0.12493409 0.3752709 1.2259998
0.13519247 0.37417623 1.2245386
0.14326572 0.37233555 1.223
0.53637588 0.37662828 1.2243334
0.12467858 0.38219762 1.2235
0.13472411 0.38346553 1.223
0.48570573 0.38553619 1.223
0.53754061 0.38362193 1.2243334
0.5422172 0.38562861 1.2270001
0.53928477 0.39019525 1.223
0.3484343 0.11889143 1.2360001
0.35432002 0.11653715 1.2360001
0.42712906 0.11707762 1.2355001
0.43460321 0.11628318 1.2333335
0.44000003 0.11850668 1.2320001
0.27545142 0.12830856 1.2360001
0.28722286 0.12830856 1.2360001
0.29517713 0.12633714 1.2340001
0.30426431 0.12657954 1.2335001
0.31547433 0.12830856 1.2360001
0.32509893 0.12603956 1.235077
0.33338672 0.12681296 1.2352002
0.34682912 0.12574026 1.2360001
0.35506624 0.12462857 1.2345002
0.36464265 0.12559208 1.2360001
0.37411469 0.12613057 1.2356365
0.3813943 0.12654285 1.2360001
0.39905146 0.12830856 1.2360001
0.40618047 0.1264838 1.2349092
0.41531429 0.12569213 1.2334547
0.42511475 0.12466954 1.2335002
0.43413338 0.12437333 1.2320002
0.44188252 0.12527075 1.2325716
0.46564412 0.12595429 1.2360001
0.26956573 0.13419428 1.2360001
0.27521601 0.13442972 1.2360001
0.2861048 0.13555524 1.2350001
0.2955358 0.13477062 1.2325717
0.30511677 0.13495484 1.2322003
0.31506592 0.13519165 1.2344
0.32509655 0.13496748 1.2323203
0.33557335 0.13493334 1.2320002
0.34496006 0.13493334 1.2320002
0.35416141 0.13468634 1.2320002
0.3639856 0.1327845 1.2322859
0.37585783 0.13180445 1.2320002
0.38488382 0.13369676 1.2336001
0.39527115 0.13730414 1.2340001
0.40490037 0.13474199 1.2333335
0.41633782 0.1347378 1.2320002
0.42643481 0.13379702 1.2354287
0.43549567 0.13403124 1.2352002
0.44370434 0.13433467 1.2347693
0.45476952 0.13772571 1.2360001
0.46545476 0.13243702 1.2337143
0.47203431 0.13301714 1.2360001
0.21777143 0.14714286 1.2360001
0.22483429 0.14808458 1.2360001
0.23542857 0.14832002 1.2360001
0.24434124 0.14848816 1.2360001
0.25700954 0.14871238 1.2360001
0.26552135 0.14614254 1.2345884
0.27518287 0.14464459 1.2348001
0.2851159 0.14441891 1.2328699
0.29685333 0.14432001 1.2320002
0.3050667 0.14432001 1.2320002
0.31445336 0.14432001 1.2320002
0.32501334 0.14549331 1.2320002
0.33557338 0.14549333 1.2320002
0.34472534 0.14525868 1.2320002
0.35200003 0.14197333 1.2320001
0.38602668 0.14901336 1.2320001
0.39487186 0.14504205 1.2320002
0.40505075 0.14508569 1.2330911
0.41488603 0.14494509 1.2323335
0.43632761 0.14635812 1.2360001
0.44517082 0.14498979 1.2358096
0.45417506 0.14441545 1.2349476
0.46328983 0.14478859 1.2360001
0.17304002 0.15499048 1.2360001
0.20835428 0.1589143 1.2360001
0.21541715 0.15577523 1.2360001
0.22483429 0.15538286 1.2360001
0.23542857 0.15538286 1.2360001
0.24459359 0.15503405 1.2332501
0.25508168 0.15492707 1.2329414
0.26448283 0.1547467 1.2328001
0.27374771 0.15460923 1.2320002
0.28310856 0.15471239 1.2320002
0.32970667 0.15136001 1.2320001
0.33440003 0.15136001 1.2320001
0.40480006 0.15214223 1.2320002
0.42794669 0.15504509 1.2333335
0.43577832 0.15538286 1.2360001
0.44533849 0.1551061 1.2338002
0.45613337 0.15458669 1.2320002
0.46333081 0.15566182 1.2351112
0.17068571 0.16126858 1.2360001
0.206 0.16597717 1.2360001
0.21306285 0.1671543 1.2360001
0.22483431 0.16480002 1.2360001
0.23528594 0.16469786 1.2352501
0.24510336 0.16441242 1.2326318
0.25496653 0.16416001 1.2337145
0.26394433 0.16460097 1.2345002
0.2745029 0.16132039 1.2328001
0.2848267 0.16221334 1.2320002
0.42638937 0.16684802 1.2320001
0.43524751 0.16489118 1.2349335
0.4452104 0.16439262 1.234889
0.45339307 0.16562033 1.2333335
0.46423775 0.16343239 1.2328002
0.19725552 0.1753943 1.2360001
0.20497251 0.17477438 1.2353334
0.21446605 0.17525622 1.2350477
0.2248555 0.17447622 1.234286
0.23479177 0.17100763 1.2326669
0.2452267 0.17130667 1.2320002
0.25574729 0.17176001 1.2324446
0.26414287 0.17139876 1.2326669
0.41653338 0.17952001 1.2320001
0.42748451 0.17443557 1.2320002
0.434708 0.17458391 1.2340001
0.44469211 0.17539793 1.2344763
0.45221975 0.17540573 1.2333335
0.46394908 0.17577858 1.2325002
0.48733714 0.17774859 1.2360001
0.4953281 0.17458197 1.2353847
0.50209779 0.17363304 1.2346667
0.18559618 0.18795048 1.2360001
0.19540572 0.1848114 1.2360001
0.20386936 0.1848007 1.2331767
0.21503866 0.18467511 1.2328573
0.22303654 0.1840689 1.2336669
0.24992001 0.18186669 1.2320001
0.25226671 0.18421334 1.2320001
0.41698417 0.18206352 1.2333335
0.42474672 0.18186669 1.2320001
0.43577766 0.18281955 1.2325002
0.4432267 0.18304001 1.2320002
0.4669486 0.18466096 1.2350001
0.47493207 0.18702096 1.2333335
0.48480454 0.1870542 1.2352729
0.49498862 0.18069142 1.2360001
0.50028574 0.18128002 1.2360001
0.15734477 0.19815238 1.2360001
0.18638097 0.19462095 1.2360001
0.19540574 0.19540571 1.2360001
0.20428166 0.19458005 1.2322669
0.21049599 0.19500801 1.2320001
0.46503115 0.19360001 1.2320001
0.47676447 0.19320889 1.2320002
0.48514095 0.19438438 1.2340001
0.49621591 0.19323428 1.2346667
0.15773715 0.20129144 1.2360001
0.16244572 0.20364574 1.2360001
0.18904915 0.20411658 1.2360001
0.19520739 0.20461267 1.2347502
0.20376891 0.20259558 1.2320002
0.21002668 0.20181334 1.2320001
0.47930667 0.20592001 1.2320001
0.48498192 0.20432603 1.2330002
0.49290133 0.20586514 1.2352002
0.50970292 0.20600002 1.2360001
0.51441145 0.20717715 1.2360001
0.16738972 0.21588799 1.2360001
0.17484635 0.21571872 1.2340002
0.18504256 0.21341079 1.2344002
0.19418669 0.21149337 1.2320002
0.48628286 0.21555905 1.2323335
0.49554288 0.21271068 1.2327275
0.50560921 0.21386462 1.2352002
0.51531696 0.21433057 1.2360001
0.52468479 0.21629874 1.2343335
0.12583566 0.22798859 1.2348573
0.13226986 0.22735937 1.2326669
0.14489034 0.22708245 1.2354287
0.1552743 0.22635676 1.2351429
0.16466464 0.22485361 1.2344002
0.17085811 0.22193812 1.233
0.48715922 0.22655948 1.2325716
0.49275213 0.22700083 1.233143
0.50805336 0.22293335 1.2320001
0.51594937 0.22431359 1.2347502
0.52392 0.22456327 1.2354287
0.11889143 0.23542857 1.2360001
0.12467477 0.23523571 1.2350001
0.13501981 0.2348187 1.2328002
0.14784002 0.23114669 1.2320001
0.15506752 0.23357929 1.2324446
0.16376384 0.23483431 1.2320002
0.17365335 0.23584002 1.2320002
0.48740268 0.23208535 1.2320001
0.49520713 0.23494151 1.2325716
0.50523734 0.23771736 1.2320001
0.515733 0.2356845 1.2345456
0.5214743 0.23189715 1.2360001
0.54313374 0.2380183 1.2360001
0.11182857 0.24131429 1.2360001
0.12522231 0.24439511 1.2354287
0.13467205 0.24490653 1.2325457
0.14608 0.2469867 1.2320002
0.1547886 0.24496892 1.2333335
0.16426669 0.24288 1.2320002
0.17365335 0.24288003 1.2320002
0.4986667 0.24170668 1.2320001
0.50511158 0.24402435 1.232308
0.51448643 0.24450287 1.2346668
0.52265143 0.24249142 1.2360001
0.54148573 0.24131429 1.2360001
0.10912001 0.25696 1.2320001
0.11537372 0.25682288 1.2336
0.12536572 0.25396857 1.2360001
0.13654858 0.2519086 1.2360001
0.14593653 0.25470352 1.2324446
0.15136001 0.25344002 1.2320001
0.48224005 0.25226671 1.2320001
0.51492006 0.25255683 1.2353334
0.53677714 0.25426286 1.2360001
0.086483821 0.26650557 1.2342857
0.090444446 0.26663747 1.2333335
0.10800572 0.26648828 1.2326669
0.11493835 0.26455882 1.2334738
0.12242001 0.26509142 1.2330002
0.14568001 0.26434365 1.2336001
0.16133335 0.26341337 1.2320001
0.49772805 0.26353067 1.2320001
0.50101334 0.26400003 1.2320001
0.085931443 0.27427429 1.2360001
0.093308888 0.27561876 1.2350001
0.10571097 0.27493238 1.2350001
0.11487316 0.27462223 1.2333336
0.12163556 0.27260447 1.2320001
0.53324574 0.27898285 1.2360001
0.095459051 0.28431284 1.2338825
0.10593906 0.2858468 1.2328891
0.11537017 0.28490543 1.2333335
0.12500902 0.28536001 1.2344002
0.13468403 0.28594962 1.2333335
0.142912 0.28793603 1.2320001
0.52917337 0.28629333 1.2320001
0.53373182 0.28567317 1.2344
0.097702861 0.29075432 1.2360001
0.105305 0.29507029 1.2337502
0.11525769 0.29410616 1.233143
0.12468403 0.29492825 1.2337779
0.13355498 0.2958138 1.2345884
0.5375759 0.29404065 1.2333335
0.54030859 0.29310858 1.2360001
0.096664764 0.30670062 1.2348001
0.10187429 0.30091733 1.2352002
0.12601601 0.30248535 1.2320001
0.13429333 0.30346668 1.2320002
0.5429619 0.30673715 1.2340001
0.069451429 0.31900573 1.2360001
0.076775879 0.31638989 1.2360001
0.081222862 0.3154743 1.2360001
0.094484143 0.31522128 1.235
0.14901336 0.31562668 1.2320001
0.15318519 0.31406224 1.2320002
0.53738672 0.31445336 1.2320001
0.54148573 0.3154743 1.2360001
0.067078412 0.3248035 1.2356668
0.07495866 0.32449234 1.2331767
0.08540801 0.32562286 1.2352002
0.094260328 0.32417524 1.233778
0.12320001 0.32501334 1.2320002
0.54501712 0.32748115 1.2360001
0.076514289 0.33077714 1.2360001
0.086402282 0.33477944 1.2360001
0.091006666 0.33408672 1.233
0.12487619 0.33305907 1.2320002
0.13352534 0.33486938 1.2320001
0.53825718 0.33493525 1.2340001
0.54060763 0.33493525 1.2340001
0.076318093 0.34627619 1.2360001
0.08458744 0.34423089 1.2336003
0.091059051 0.34494969 1.2325716
0.11616001 0.34237871 1.2320001
0.12392128 0.34533083 1.2333335
0.13024001 0.34848002 1.2320001
0.068862855 0.35490859 1.2360001
0.075655237 0.35491079 1.2357143
0.083072022 0.35364267 1.2320002
0.12554666 0.35200003 1.2320002
0.13305601 0.35270402 1.2320001
0.082720011 0.3657867 1.2320002
0.12476445 0.36608005 1.2320002
0.1341981 0.36373442 1.2330911
0.2890543 0.088024765 1.2490001
0.2946054 0.088421278 1.2490001
0.32616746 0.086359434 1.2490001
0.37707907 0.089214288 1.2490001
0.39849052 0.089214288 1.2490001
0.40392831 0.088194691 1.249
0.2890543 0.098730482 1.2490001
0.29571563 0.095637724 1.2490002
0.30094954 0.098730482 1.2490001
0.31998193 0.093972385 1.2490001
0.32236099 0.096351437 1.2490001
0.36756286 0.092782855 1.2490001
0.37566262 0.095106438 1.2482502
0.38445407 0.095875628 1.2490002
0.39519641 0.09598542 1.2490003
0.40324858 0.095161907 1.2490002
0.28826126 0.10547111 1.2490001
0.29500189 0.10467809 1.2490003
0.30443877 0.104916 1.2490003
0.32573128 0.10566937 1.2490002
0.3352758 0.10688722 1.249
0.34579253 0.10535703 1.2482502
0.35424989 0.10491762 1.2466251
0.36302105 0.10543507 1.2490002
0.37570208 0.10463975 1.2476002
0.38476574 0.10513788 1.245353
0.39549732 0.10559928 1.2445717
0.40415683 0.10547893 1.2444667
0.41038573 0.1046781 1.2490001
0.42941812 0.10824667 1.2490001
0.43298668 0.10824667 1.2490001
0.44488192 0.10824667 1.2490001
0.24464542 0.11578032 1.2490001
0.26764289 0.11776286 1.2490001
0.2781994 0.11452667 1.2483333
0.28462625 0.11503358 1.2452502
0.2944704 0.11517972 1.2434784
0.30484542 0.11502245 1.2465558
0.31478611 0.11477118 1.2468699
0.32491544 0.11503179 1.2440476
0.33491093 0.11480003 1.2470003
0.34480929 0.11452447 1.244174
0.35519001 0.11374239 1.2414999
0.36571932 0.11502148 1.2451502
0.37527835 0.11504372 1.2454003
0.38484278 0.11470897 1.2440457
0.39465323 0.11610588 1.2417648
0.40451896 0.11642449 1.2444615
0.41552535 0.11557753 1.2473004
0.42480996 0.11430611 1.2449412
0.43450212 0.11189029 1.2472001
0.44607148 0.11062572 1.2490001
0.46530816 0.1187408 1.245
0.47387677 0.11935829 1.2458
0.21550152 0.12640153 1.2474
0.22410485 0.12718321 1.2480772
0.23587252 0.12634096 1.2481432
0.24416645 0.125047 1.2465558
0.25450069 0.12656966 1.2487144
0.26498991 0.12690698 1.2484667
0.27438426 0.12427321 1.2461908
0.28466457 0.12495743 1.2421875
0.29439592 0.1225932 1.2428571
0.30624625 0.12307346 1.2442857
0.31525576 0.12404037 1.244077
0.32359657 0.12272041 1.2407142
0.33624285 0.12366323 1.2414
0.34314615 0.12347913 1.2412727
0.36727619 0.1216381 1.24
0.37577903 0.12211049 1.24
0.3852053 0.12489736 1.241111
0.39416894 0.12520804 1.2421051
0.40388575 0.12329143 1.2399999
0.41569525 0.1216381 1.24
0.42278093 0.1216381 1.24
0.44994286 0.12872382 1.24
0.45230478 0.12872382 1.24
0.46478516 0.12258055 1.2427142
0.47343493 0.12527439 1.2408998
0.20393726 0.13732393 1.2490001
0.21402763 0.13555287 1.2485002
0.22482005 0.13560572 1.2490003
0.23554936 0.13548887 1.2472943
0.24390286 0.13476381 1.242
0.25476608 0.13562582 1.246778
0.26459181 0.13472843 1.2433889
0.27988571 0.13108571 1.24
0.28579047 0.13108571 1.24
0.38853332 0.13108571 1.24
0.39492062 0.13277778 1.241111
0.40034288 0.13108571 1.24
0.43340954 0.13580953 1.24
0.44994286 0.1334476 1.24
0.4561117 0.13454062 1.2421817
0.46474525 0.13539037 1.2409998
0.47621611 0.13588656 1.2455555
0.48270878 0.13727106 1.2490001
0.19865048 0.14155334 1.2490001
0.204836 0.14504261 1.2490003
0.21446225 0.14568987 1.2480717
0.22475539 0.14371875 1.2456155
0.23561193 0.14326045 1.2432001
0.24522619 0.14353952 1.2414999
0.25450242 0.14471522 1.2435001
0.26377919 0.14208037 1.2406249
0.43459046 0.1426 1.2399999
0.44049522 0.14289525 1.24
0.46688813 0.14452715 1.2490001
0.47586137 0.1453992 1.2474618
0.48240018 0.14383715 1.2482001
0.16785808 0.15572667 1.2461112
0.17467038 0.15532644 1.2434167
0.18539581 0.15718709 1.249
0.19542797 0.15610462 1.2483079
0.20483217 0.15521584 1.2459525
0.21370791 0.15469944 1.2427142
0.43655872 0.15588571 1.2399999
0.47516099 0.15534668 1.2483333
0.48678383 0.15803778 1.2476667
0.49219939 0.15415715 1.2483333
0.16689296 0.16309981 1.2464
0.17646328 0.16458344 1.2473848
0.18528897 0.16404071 1.2487336
0.19545843 0.16486439 1.2438697
0.20396735 0.16381498 1.2399999
0.21532698 0.16454603 1.2399999
0.22488706 0.16516462 1.2399999
0.23028572 0.16651428 1.24
0.43577144 0.16179048 1.24
0.4688381 0.1688762 1.24
0.47515091 0.16446777 1.2437142
0.48287073 0.1644143 1.2465
0.49483237 0.16623743 1.2455715
0.50453377 0.16797903 1.2465
0.51030576 0.16772287 1.2490001
0.17671038 0.17671038 1.2490001
0.18516189 0.1744763 1.2463002
0.19333991 0.17425202 1.2407691
0.4688381 0.17123809 1.24
0.47553512 0.17550474 1.2451667
0.48495004 0.17458712 1.2455456
0.49334282 0.17419046 1.2399999
0.51387429 0.17129144 1.2490001
0.14493601 0.18675087 1.2474
0.1546381 0.1891343 1.2490001
0.16415429 0.1891343 1.2490001
0.17486003 0.18556574 1.2490003
0.18436517 0.18436696 1.2409374
0.19013333 0.18540953 1.24
0.47465441 0.18279319 1.2428571
0.48324546 0.18273635 1.2422726
0.49363807 0.18422858 1.2399999
0.5158568 0.18675525 1.2490001
0.13668446 0.19492728 1.248
0.14449881 0.19424513 1.2436249
0.15417162 0.19483146 1.2464377
0.16398716 0.19559216 1.246316
0.1753221 0.19400483 1.2449377
0.18338504 0.19688162 1.2399999
0.48773333 0.19958095 1.24
0.49507651 0.19637313 1.2410713
0.50581288 0.19890951 1.2421428
0.51531488 0.19682132 1.245
0.52398527 0.19805571 1.2490001
0.13659701 0.20439984 1.2490002
0.14508288 0.20459861 1.2468824
0.15401824 0.20546629 1.2425263
0.1647469 0.20636813 1.2403845
0.17480749 0.20485641 1.2440456
0.18383124 0.20538838 1.2403125
0.49796829 0.20351748 1.2399999
0.50561804 0.20588475 1.2409998
0.51433384 0.20360334 1.2414999
0.52359158 0.20543934 1.2436154
0.53355527 0.20870681 1.2461427
0.1391743 0.21530382 1.2490001
0.14602053 0.21449122 1.2443335
0.15548721 0.21490628 1.2415625
0.16386667 0.21448731 1.2408332
0.17438729 0.21139048 1.24
0.18068571 0.21139048 1.24
0.50899047 0.21375237 1.24
0.51253331 0.21847619 1.24
0.52518642 0.21375239 1.2399999
0.53328502 0.2132481 1.24225
0.10467809 0.2280912 1.2490001
0.11438203 0.22519661 1.248765
0.1227182 0.22632456 1.2456666
0.13737419 0.22508615 1.2446666
0.14484686 0.22241877 1.2427692
0.15588571 0.22162539 1.2399999
0.16257779 0.2216254 1.24
0.53357142 0.22765714 1.245
0.093972385 0.2390943 1.2490001
0.10656779 0.23591982 1.2470909
0.11400072 0.23486641 1.24175
0.13580953 0.23028572 1.24
0.52627701 0.23684078 1.2455
0.535164 0.23735379 1.2446923
0.54196429 0.23785 1.2425001
0.094969586 0.24471794 1.2455883
0.10504488 0.24436766 1.2455558
0.11599898 0.24568264 1.2410715
0.1216381 0.248 1.24
0.5184381 0.24918096 1.24
0.52508098 0.24521291 1.2421428
0.53516126 0.24435882 1.2443001
0.54329163 0.24707496 1.2412857
0.087051518 0.25488251 1.2490002
0.094826028 0.25526524 1.2454214
0.1042968 0.2551454 1.2466844
0.11485212 0.25326231 1.2451429
0.12278096 0.25478667 1.242
0.52308095 0.25187778 1.2416667
0.5358429 0.25395298 1.243
0.54295415 0.25382572 1.2412856
0.078444764 0.26623905 1.248
0.085486434 0.26300311 1.2467502
0.092965871 0.26274046 1.2408333
0.10574354 0.26343197 1.2435714
0.11477381 0.26151666 1.2425001
0.1232127 0.26177776 1.24
0.53721321 0.26261565 1.2412857
0.54388696 0.26581907 1.2459999
0.079301588 0.273987 1.2490001
0.084705584 0.27497241 1.2452857
0.53862762 0.27976984 1.243
0.54480195 0.27444014 1.2490003
0.55074954 0.27478001 1.2490001
0.073036768 0.28810269 1.2490001
0.085485719 0.28530201 1.2467144
0.090933338 0.28697142 1.24
0.5396952 0.28224763 1.24
0.54576278 0.28455722 1.2466666
0.55330217 0.28369507 1.2478572
0.56026578 0.28310668 1.2490001
0.048263431 0.29505315 1.2482001
0.052101146 0.29619145 1.2490001
0.064608365 0.29555905 1.2485557
0.074675657 0.29381239 1.2490001
0.086265311 0.29547888 1.2481431
0.094611362 0.29553053 1.2440714
0.10038095 0.29759997 1.24
0.5396952 0.29169524 1.24
0.54696375 0.29468825 1.244
0.55501759 0.29616994 1.2458463
0.56244069 0.29745746 1.2476667
0.036875244 0.30808669 1.2490001
0.041633338 0.30808669 1.2490001
0.058286671 0.30808669 1.2490001
0.064234287 0.30451813 1.2490003
0.076922543 0.30451813 1.2490001
0.085736133 0.30509216 1.2465004
0.093540587 0.3037633 1.2433077
0.547647 0.30365655 1.2406249
0.55535871 0.30550477 1.2433332
0.56392479 0.30456096 1.2460909
0.016653333 0.31760287 1.2490001
0.026277661 0.31760284 1.2490002
0.036355499 0.31467864 1.2459999
0.04397238 0.31682271 1.2478001
0.055207901 0.31592354 1.2490003
0.06505163 0.31460664 1.2457918
0.074092895 0.31358844 1.244
0.085324287 0.3105281 1.2445
0.092114292 0.31295237 1.24
0.54717463 0.31531429 1.2399999
0.55511993 0.31509078 1.2448462
0.027755557 0.32434353 1.2490001
0.035739876 0.3256422 1.2482002
0.045167617 0.3256695 1.2480001
0.054542851 0.32488573 1.2450001
0.062298808 0.32451707 1.2420832
0.081485711 0.32948571 1.24
0.54514575 0.3240352 1.2399999
0.55315244 0.32330823 1.242375
0.075755559 0.33733749 1.2428333
0.082327776 0.33482778 1.2408333
0.0744415 0.34318298 1.2407142
0.38729239 0.068345711 1.2590001
0.25557715 0.077628575 1.2540001
0.26019335 0.077938102 1.2590001
0.32734004 0.07673905 1.2590001
0.35611713 0.077938102 1.2590001
0.38729239 0.071942866 1.2590001
0.40487841 0.077138729 1.2590001
0.25659621 0.080336191 1.2590001
0.27937812 0.086331435 1.2590001
0.28520453 0.085358776 1.2565
0.29450414 0.084561534 1.2553333
0.30215809 0.087411433 1.2573334
0.32374603 0.085596256 1.2554705
0.33525953 0.086207278 1.2572143
0.34605312 0.088120438 1.2580909
0.35481894 0.085452326 1.2566665
0.36433369 0.087232314 1.2572144
0.37426662 0.087339133 1.2562727
0.384781 0.084632866 1.2564999
0.39466554 0.084908336 1.2557499
0.40406916 0.083133742 1.2547141
0.41463065 0.087050863 1.2590001
0.42446285 0.08513239 1.2590001
0.43445492 0.086997569 1.2589999
0.44184905 0.085731909 1.2590001
0.23741144 0.099520952 1.2590001
0.24820286 0.099520952 1.2590001
0.25299907 0.099520952 1.2590001
0.26019335 0.099520952 1.2590001
0.28550014 0.095412664 1.255923
0.29339617 0.094613969 1.2540001
0.30573869 0.09584666 1.2543845
0.31498331 0.095855042 1.255
0.32503536 0.095111728 1.2543845
0.33448425 0.095565781 1.2543124
0.34554705 0.095908128 1.2563683
0.35579547 0.095397934 1.2548823
0.3649396 0.095884085 1.2539999
0.37142286 0.095542863 1.2540001
0.3875457 0.093751438 1.2540001
0.39339775 0.093393147 1.2540001
0.40964001 0.095542863 1.2540001
0.41386026 0.09522786 1.25775
0.42486259 0.097922221 1.2589999
0.43297487 0.095685713 1.2558749
0.44266662 0.096904844 1.2589999
0.21702763 0.10911334 1.2590001
0.22709963 0.1033579 1.2590001
0.23501335 0.1055162 1.2589999
0.24489063 0.10561518 1.2570554
0.25453648 0.10520896 1.2563332
0.26468557 0.10510281 1.2563684
0.27551126 0.10555632 1.2566667
0.28404924 0.10487293 1.2554286
0.30693144 0.10151429 1.2540001
0.3268362 0.10231048 1.2540001
0.33529571 0.10330572 1.2540001
0.34216285 0.10211143 1.2540001
0.36760116 0.10342515 1.2540001
0.37190059 0.10485829 1.2540001
0.39292002 0.10151429 1.2540001
0.41603854 0.1056129 1.2562727
0.42432165 0.1053284 1.2568126
0.43398225 0.10449042 1.2553333
0.4447276 0.10433707 1.2572142
0.21827483 0.11555511 1.2582856
0.22302286 0.11510858 1.2590001
0.23512313 0.11491199 1.256857
0.24448736 0.11396901 1.2539999
0.25533831 0.11457182 1.2539999
0.26459888 0.11453102 1.2543124
0.27476534 0.11489027 1.2539999
0.41537261 0.11441257 1.2540001
0.42636001 0.11106858 1.2540001
0.43830287 0.11106858 1.2540001
0.44228384 0.11186477 1.2540001
0.4693543 0.11584572 1.2540001
0.47573608 0.1157168 1.255875
0.4832162 0.11750667 1.2590001
0.18842725 0.12713696 1.2570001
0.19430254 0.12567566 1.2567779
0.20558712 0.12596688 1.2578461
0.21413971 0.12390544 1.2561429
0.2243551 0.12335266 1.2540001
0.23300061 0.12247442 1.2546251
0.24642098 0.12141905 1.2540001
0.25557718 0.12141905 1.2540001
0.26461959 0.12198775 1.2540001
0.4847905 0.12636817 1.2568572
0.49041051 0.12709905 1.2590001
0.17557365 0.13670191 1.2578889
0.18555142 0.13375086 1.2582307
0.19581431 0.13421787 1.2545555
0.20596002 0.13256572 1.2539999
0.21138857 0.13017714 1.2540001
0.48698467 0.13357303 1.2545
0.49444878 0.13587442 1.2566667
0.50120193 0.13789047 1.2590001
0.15947334 0.14748287 1.2590001
0.16564858 0.14537564 1.256647
0.17457594 0.14487781 1.2550526
0.18372749 0.14633526 1.2570769
0.19579615 0.14607859 1.2557857
0.20183429 0.14689715 1.2540001
0.21377714 0.14450859 1.2540001
0.22333144 0.14212 1.2540001
0.4693543 0.14450857 1.2540001
0.47234002 0.1463 1.2540001
0.48709798 0.14655593 1.2540001
0.49406362 0.14574336 1.2543571
0.50444043 0.1450977 1.2555217
0.51319242 0.14988096 1.2590001
0.15579762 0.15579824 1.2583752
0.16367561 0.15498641 1.2544545
0.17556001 0.1516743 1.2540001
0.18613796 0.15372165 1.2540001
0.19586286 0.1516743 1.2540001
0.47545841 0.15379746 1.2540001
0.4848657 0.15510157 1.2553636
0.49217895 0.15489393 1.255875
0.50420392 0.15580837 1.2568947
0.51469117 0.15437737 1.2589999
0.52158576 0.15467715 1.2590001
0.11870572 0.16906573 1.2590001
0.12278215 0.16829835 1.25775
0.1490816 0.16546857 1.2589999
0.15603921 0.16476694 1.2575713
0.16458675 0.16513869 1.2543845
0.17078286 0.1683943 1.2540001
0.18989144 0.16600573 1.2540001
0.19228001 0.16600573 1.2540001
0.49204576 0.16242287 1.2540001
0.50515813 0.16359939 1.2565
0.51579058 0.16508089 1.2560833
0.52425539 0.16540144 1.2584999
0.11870572 0.17386191 1.2590001
0.12345809 0.17411776 1.2564999
0.13069619 0.17146382 1.2590001
0.14748287 0.17625999 1.2589999
0.15603285 0.17520681 1.2583333
0.16501708 0.1745809 1.2555625
0.17460458 0.17412686 1.2539999
0.51951432 0.17197716 1.2540001
0.52190292 0.17197716 1.2540001
0.11870572 0.18225524 1.2590001
0.12254266 0.18345428 1.2590001
0.13793999 0.18929431 1.2540001
0.14557925 0.18311028 1.255
0.15541372 0.18410036 1.25525
0.1648528 0.18396494 1.2543124
0.17317145 0.18033715 1.2540001
0.51951432 0.18630858 1.2540001
0.52464712 0.18618417 1.2553636
0.53261697 0.18681163 1.2590001
0.11870572 0.19664381 1.2590001
0.1252981 0.19563553 1.2566923
0.13152809 0.19489667 1.2555
0.52614462 0.19410437 1.2549999
0.53365225 0.19435844 1.2576363
0.55875623 0.19784287 1.2590001
0.10791429 0.20983334 1.2590001
0.11509328 0.20506716 1.2559445
0.12402155 0.2048867 1.2548332
0.13167 0.20571572 1.2540001
0.52906859 0.20302857 1.2540001
0.53467643 0.20412548 1.2552501
0.5431686 0.20743524 1.2590001
0.55995524 0.20024095 1.2590001
0.10637254 0.21613999 1.2573333
0.11470859 0.21507737 1.254625
0.12470806 0.2151929 1.2566667
0.13423397 0.21496403 1.2551764
0.14212 0.21736 1.2540001
0.54796481 0.21343049 1.2590001
0.55156195 0.21343049 1.2590001
0.1058542 0.22341952 1.2545
0.11345714 0.22333144 1.2540001
0.12535381 0.22437145 1.2565
0.13402525 0.22377476 1.2565
0.087072857 0.23765318 1.2581667
0.09559226 0.23658705 1.2546251
0.10231048 0.23686667 1.2540001
0.53742862 0.23527429 1.2540001
0.073598966 0.24683709 1.2544999
0.085309699 0.24512279 1.2555217
0.099125721 0.24005145 1.2540001
0.10151429 0.24005145 1.2540001
0.056355242 0.25539717 1.2590001
0.065947622 0.25659621 1.2590001
0.074412696 0.25524867 1.2556666
0.081546001 0.25492316 1.2555001
0.049160954 0.26658827 1.2590001
0.055171698 0.26577133 1.2554286
0.065133557 0.26484579 1.2574615
0.073948137 0.26513594 1.2570769
0.080813341 0.26234478 1.2540001
0.56475145 0.26978573 1.2590001
0.049160954 0.27218381 1.2590001
0.054937139 0.27229714 1.2540001
0.060908575 0.27229714 1.2540001
0.0754181 0.27558365 1.257
0.54393083 0.27587998 1.2540001
0.55514389 0.27468571 1.2539999
0.56243575 0.27523336 1.2565
0.074716277 0.2843239 1.25525
0.080614291 0.28543431 1.2540001
0.55629832 0.28256801 1.2540001
0.56191146 0.28603145 1.2540001
0.038495921 0.29411986 1.2575715
0.04418857 0.29474974 1.2539999
0.056743432 0.29904401 1.2570001
0.064491428 0.29578474 1.2540001
0.073448576 0.29677999 1.2540001
0.081428893 0.29537621 1.2573334
0.54817718 0.29021144 1.2540001
0.55486518 0.29068917 1.2540001
0.56370288 0.29260001 1.2539999
0.028720001 0.30873764 1.2565
0.036483455 0.30648988 1.255875
0.045373112 0.30524904 1.2557647
0.054698288 0.3054983 1.2539999
0.07046286 0.30693144 1.2540001
0.080336191 0.30096096 1.2590001
0.032245714 0.31290287 1.2540001
0.047107935 0.31436253 1.2540001
0.052150477 0.31250477 1.2540001
0.28379047 0.049512379 1.268
0.28379047 0.053135239 1.268
0.31760383 0.059173334 1.268
0.32082412 0.057563175 1.268
0.39006093 0.059173334 1.268
0.25722286 0.068834282 1.268
0.26688382 0.068834282 1.268
0.32364187 0.065412708 1.2679999
0.33306134 0.063520759 1.268
0.35383239 0.06279619 1.268
0.36188316 0.067224123 1.268
0.37786785 0.067761518 1.266
0.3844696 0.065078445 1.2655001
0.39401078 0.066628143 1.266889
0.40455237 0.067626663 1.268
0.42870477 0.068834282 1.268
0.43353525 0.068834282 1.268
0.25623533 0.074336506 1.2657778
0.26596826 0.074806057 1.2669286
0.27372697 0.076885074 1.268
0.2844314 0.078340471 1.2655001
0.29441753 0.078012183 1.268
0.30190477 0.078495234 1.268
0.3248252 0.07444232 1.2665713
0.33502457 0.076817364 1.266889
0.34658667 0.076885082 1.268
0.35570443 0.075776644 1.2660769
0.36454153 0.074996285 1.26675
0.37542263 0.075842522 1.2669286
0.38408762 0.074799523 1.26425
0.39541543 0.074738763 1.2658125
0.40482572 0.074368261 1.2663332
0.41435722 0.076024592 1.2670909
0.42659143 0.076381907 1.268
0.43514884 0.074968323 1.266421
0.44412106 0.075023904 1.2664999
0.4504419 0.078495234 1.268
0.25643551 0.084677234 1.2665001
0.26521817 0.084390774 1.2658125
0.27439046 0.084636867 1.2644287
0.28146857 0.081794292 1.263
0.29951143 0.081794292 1.263
0.30552995 0.083445922 1.2657777
0.31473505 0.084670633 1.2672104
0.32147831 0.081272624 1.26425
0.3326481 0.080750957 1.2655001
0.34569272 0.083939165 1.2636251
0.35367659 0.081136391 1.2640001
0.36584041 0.081622459 1.2629999
0.37592164 0.082548864 1.2635002
0.41635379 0.083269618 1.2635002
0.42596954 0.083906017 1.2646667
0.43543425 0.083237715 1.2630001
0.4443354 0.084440567 1.2630001
0.45430619 0.084291816 1.2679999
0.22899285 0.098827146 1.2655001
0.23421989 0.09686701 1.2670909
0.24466406 0.096720576 1.2663333
0.2558704 0.094414458 1.2662352
0.26498318 0.094829373 1.2637898
0.27451974 0.095118329 1.2642502
0.28116783 0.095927857 1.263
0.30793142 0.091417141 1.263
0.31475937 0.090734281 1.2646667
0.41799286 0.09472499 1.263
0.42514801 0.092651345 1.2634168
0.4318257 0.090214282 1.263
0.44660363 0.09262 1.2629999
0.45462725 0.094511092 1.2676427
0.46422303 0.093981177 1.2679999
0.47217903 0.092986666 1.268
0.21628062 0.10733523 1.2663335
0.22437814 0.10556132 1.2643889
0.23576 0.10585143 1.263
0.27304855 0.10224286 1.263
0.42145905 0.10023239 1.268
0.45631129 0.10310096 1.2651428
0.4654164 0.1044188 1.2679999
0.47666448 0.10816816 1.268
0.48425522 0.10868571 1.268
0.18771768 0.11687068 1.268
0.19393428 0.11732309 1.2667501
0.2058128 0.11851918 1.268
0.21392697 0.11570126 1.2655001
0.22643515 0.11548834 1.2641542
0.23165269 0.1160292 1.2646667
0.47588775 0.11384492 1.2671667
0.48643526 0.11498476 1.26425
0.49472129 0.11754158 1.268
0.50461227 0.11713904 1.268
0.15767348 0.12665443 1.2665714
0.16302857 0.1268 1.268
0.17770952 0.12674338 1.2674444
0.18481502 0.1245989 1.2645385
0.19558457 0.12196971 1.263
0.20341539 0.12277158 1.2638334
0.2129057 0.12148857 1.263
0.22854286 0.12148857 1.263
0.48932427 0.1229319 1.2655001
0.4957546 0.12493984 1.2655001
0.50418097 0.12498856 1.2679999
0.15803975 0.13481691 1.26675
0.16490367 0.13515255 1.2663331
0.17356579 0.13305238 1.2648182
0.18499944 0.13544172 1.263
0.19486286 0.13832857 1.263
0.49918574 0.13111143 1.263
0.50543773 0.13431923 1.266
0.51263428 0.13766858 1.268
0.14853714 0.14853714 1.268
0.15709041 0.14547499 1.2661818
0.16318762 0.1423381 1.263
0.18704428 0.14374141 1.263
0.19331633 0.14382735 1.2629999
0.51444572 0.14129142 1.268
0.52548623 0.14824429 1.2655001
0.53014475 0.14853714 1.268
0.13869365 0.15798698 1.2663335
0.14510593 0.15616296 1.2653531
0.15309629 0.15309629 1.2635555
0.18644285 0.15276286 1.263
0.5172286 0.15597048 1.263
0.52457124 0.15594165 1.2637146
0.53014475 0.15578286 1.268
0.1174646 0.16734461 1.2671667
0.12611696 0.16759238 1.266
0.13500462 0.16534993 1.2672856
0.14428246 0.16555755 1.2642502
0.15396571 0.16960286 1.263
0.51843143 0.16238572 1.263
0.52186334 0.16149953 1.2655001
0.11666068 0.1752498 1.2665714
0.12835905 0.1777738 1.2655001
0.13565585 0.17550728 1.2679999
0.14306562 0.17441373 1.2659167
0.15156001 0.17200857 1.263
0.11661196 0.18650466 1.2652221
0.12612763 0.18585211 1.2634548
0.13502476 0.1861725 1.2658571
0.1417219 0.18267302 1.2646667
0.53647435 0.18644285 1.263
0.095099993 0.19714382 1.268
0.10908825 0.19845206 1.268
0.11514993 0.19484842 1.265143
0.12389429 0.19269773 1.263
0.53767717 0.19366001 1.263
0.54455614 0.19661866 1.2650001
0.55414164 0.19701257 1.266
0.096307613 0.20438953 1.268
0.10491357 0.20500977 1.2662499
0.11306857 0.20087714 1.263
0.54430157 0.2037753 1.2637694
0.55544072 0.20476022 1.2663333
0.56154287 0.20650285 1.268
0.067626663 0.21857904 1.268
0.078495234 0.21857904 1.268
0.084533334 0.21547376 1.2679999
0.09499009 0.21543138 1.2646667
0.10244286 0.21332477 1.2655001
0.54844308 0.21251261 1.26425
0.55566972 0.21131214 1.26425
0.56154287 0.21374857 1.268
0.068834282 0.22220191 1.268
0.075677469 0.22501963 1.2679999
0.084616236 0.22528629 1.266421
0.094223805 0.22436145 1.2630002
0.12229047 0.22172666 1.263
0.13111143 0.22252856 1.263
0.55429715 0.22824 1.268
0.56395811 0.22582476 1.268
0.067626663 0.23669334 1.268
0.075280748 0.23360005 1.2662143
0.083467633 0.23465411 1.2645385
0.092212185 0.23329942 1.2640001
0.55498719 0.23307048 1.268
0.56315303 0.23508316 1.268
0.078185715 0.24177429 1.263
0.080591433 0.24177429 1.263
0.56154287 0.24031618 1.268
0.5772419 0.24756192 1.268
0.58328003 0.2475619 1.268
0.056623809 0.25805962 1.2650001
0.062147617 0.25781238 1.263
0.5772419 0.25239238 1.268
0.58207238 0.25239238 1.268
0.045596983 0.26555416 1.2655001
0.055614851 0.26267013 1.2640001
0.062789142 0.26342574 1.263
0.56878859 0.26929906 1.268
0.57120377 0.26929906 1.268
0.038402285 0.27412954 1.268
0.045278434 0.27513829 1.2655001
0.067760952 0.27344951 1.263
0.071449712 0.27497312 1.263
0.56895143 0.27785999 1.263
0.57120377 0.27412951 1.268
0.032516826 0.28826159 1.2646667
0.06856285 0.28026569 1.263
0.070968568 0.28026569 1.263
0.56895143 0.28026569 1.263
0.032874722 0.29570872 1.2641538
0.080591433 0.2947 1.263
0.28791621 0.048860956 1.2720001
0.29310191 0.049863812 1.2770001
0.3198581 0.047431428 1.2770001
0.32404211 0.046328679 1.2764446
0.33493888 0.048890859 1.2770001
0.3466143 0.049863812 1.2770001
0.39526191 0.04378286 1.2770001
0.40620765 0.04864762 1.2770001
0.26780516 0.057647429 1.2770001
0.27527818 0.056055181 1.2746471
0.28484002 0.055515751 1.2735386
0.29454285 0.056278732 1.2753335
0.30556834 0.058926906 1.2757502
0.31570953 0.056830097 1.2750002
0.32467681 0.055283047 1.2730001
0.33442223 0.056153629 1.2754618
0.34575418 0.056680169 1.2753335
0.35495293 0.057241105 1.2746924
0.36343759 0.057127617 1.2762859
0.37093809 0.059593335 1.2770001
0.38412514 0.058043927 1.2763752
0.39407465 0.057075836 1.2751251
0.40522501 0.056103878 1.276643
0.41593716 0.059593335 1.2770001
0.24931905 0.068106666 1.2770001
0.25369734 0.067863427 1.2770001
0.26513118 0.065248668 1.2735002
0.27509025 0.065575242 1.2737647
0.28388017 0.065620959 1.2760001
0.29431811 0.069322854 1.2770001
0.3057718 0.066622309 1.2757502
0.31528559 0.065880127 1.2751251
0.3272588 0.06559021 1.2720002
0.33586857 0.066022865 1.2720002
0.34404573 0.065417148 1.2720001
0.35494855 0.066022858 1.2720001
0.36650375 0.064951204 1.2720002
0.37511697 0.06480439 1.2727693
0.38160002 0.061782859 1.2720001
0.39613721 0.062994286 1.2720002
0.40507698 0.064822353 1.273154
0.41471574 0.065477863 1.2732501
0.42409009 0.065708004 1.2730001
0.43524575 0.065952197 1.2730002
0.4448624 0.068579048 1.2745001
0.45120668 0.069322854 1.2770001
0.46093622 0.069322854 1.2770001
0.20877287 0.078897625 1.2745001
0.21404953 0.078444287 1.2770001
0.22256286 0.079052381 1.2770001
0.2464606 0.077493452 1.2763751
0.25234681 0.0752175 1.2738751
0.26166859 0.071474291 1.2720001
0.27717489 0.073897146 1.2720002
0.28577107 0.074168488 1.2729093
0.29523674 0.073779039 1.2738184
0.30543631 0.074437909 1.2730002
0.31504792 0.075126141 1.2723125
0.32224002 0.075108573 1.2720001
0.3360503 0.072443433 1.2720001
0.34469807 0.074642643 1.2720002
0.35292956 0.072281905 1.2720002
0.3682743 0.071474291 1.2720001
0.37372577 0.072080001 1.2720001
0.4058286 0.071474291 1.2720001
0.41713524 0.072281905 1.2720001
0.42400002 0.073412575 1.2720002
0.44863239 0.073089533 1.2720001
0.45578429 0.075253807 1.2745003
0.46164909 0.076061428 1.2745
0.20690468 0.08558014 1.2739233
0.21579291 0.084860414 1.2729375
0.22538088 0.085151188 1.2736667
0.23517878 0.086731717 1.2755002
0.24605431 0.085431166 1.2762859
0.25264966 0.08552894 1.2738751
0.27741715 0.082377151 1.2720001
0.33798859 0.081165716 1.2720001
0.3440457 0.081165716 1.2720001
0.46518865 0.08480002 1.2720001
0.47281605 0.085414425 1.2734287
0.49742192 0.088781908 1.2770001
0.19580668 0.098511435 1.2770001
0.20600924 0.094902694 1.2746472
0.21568638 0.094515532 1.2723125
0.22508343 0.094249137 1.2720001
0.23484409 0.091895521 1.2720002
0.24470858 0.091664769 1.2720002
0.25076574 0.092068583 1.2720001
0.4688229 0.098125719 1.2720001
0.47488004 0.095460579 1.2720002
0.48332337 0.096420169 1.2761667
0.49580038 0.096079051 1.2770001
0.50228667 0.093646668 1.2770001
0.19442961 0.10502348 1.2759287
0.20515309 0.10504388 1.276412
0.21437369 0.103287 1.2737859
0.22169144 0.10054857 1.2720001
0.46397716 0.10297143 1.2720001
0.47460043 0.10371693 1.2720002
0.48472974 0.10300437 1.2724169
0.49417257 0.10424535 1.2739233
0.50715148 0.10824096 1.2770001
0.51399386 0.1069577 1.274143
0.52539432 0.10824096 1.2770001
0.53147525 0.10824096 1.2770001
0.15900904 0.11895096 1.2745001
0.16143668 0.11895096 1.2745001
0.17666644 0.11554994 1.2749169
0.18324877 0.11411656 1.2720001
0.19658192 0.11334079 1.2728336
0.20547917 0.11295974 1.2734288
0.212 0.11145143 1.2720001
0.47488001 0.11266286 1.2720001
0.49488416 0.11271206 1.2725558
0.50384498 0.11458953 1.2732501
0.51485914 0.1153543 1.2750001
0.52532774 0.1130724 1.2766156
0.53269148 0.11188953 1.2770001
0.15475953 0.12502001 1.2745001
0.16636389 0.1233639 1.2733638
0.17329025 0.12461454 1.2724169
0.51425153 0.12598859 1.2720001
0.52510107 0.12432952 1.2762859
0.14959145 0.13621333 1.2770001
0.15357117 0.13590884 1.275182
0.51606864 0.13519543 1.2720002
0.5387724 0.13864572 1.2770001
0.54242098 0.13864572 1.2770001
0.1466327 0.14663059 1.2747779
0.15369739 0.14399762 1.2732502
0.52818286 0.14537144 1.2720001
0.53539389 0.1438698 1.2755716
0.54566514 0.14553256 1.2760626
0.55114686 0.14621542 1.2730001
0.11797048 0.15810476 1.2770001
0.12234876 0.15786152 1.2770001
0.13553701 0.15740801 1.2755716
0.14273049 0.1524346 1.2736667
0.53468668 0.15233192 1.2745
0.54863954 0.1517262 1.2745001
0.55204213 0.1567319 1.2732502
0.10824096 0.16661809 1.2770001
0.11414547 0.16509904 1.2738184
0.12550506 0.16386145 1.2745001
0.13221556 0.16133112 1.2736667
0.53755623 0.16540191 1.2770001
0.54558307 0.16564515 1.2770001
0.55332655 0.16485742 1.2746669
0.56172788 0.16465637 1.2750001
0.079052381 0.17878 1.2770001
0.08756572 0.17878 1.2770001
0.098511435 0.17634763 1.2770001
0.11293726 0.17487371 1.2751251
0.54120475 0.17148286 1.2770001
0.55247337 0.17283116 1.274143
0.56188005 0.17391525 1.2770001
0.087808952 0.18364477 1.2770001
0.093925081 0.18502033 1.2753333
0.10743017 0.18769874 1.2770001
0.11284993 0.18496859 1.274143
0.13568 0.18292572 1.2720001
0.066890478 0.19742827 1.2770001
0.074187621 0.19094191 1.2770001
0.086731717 0.19557382 1.2755002
