# .PCD v0.7 - Point Cloud Data file format
VERSION 0.7
FIELDS x y z
SIZE 4 4 4
TYPE F F F
COUNT 1 1 1
WIDTH 116
HEIGHT 1
VIEWPOINT 0 0 0 1 0 0 0
POINTS 116
DATA ascii
0.37566668 -0.61250001 1.715
0.34136665 -0.60923332 1.715
0.36096668 -0.60759997 1.715
0.37621114 -0.60814446 1.715
0.38429999 -0.60689992 1.715
0.39145556 -0.60378891 1.715
0.3035762 -0.62684381 1.7229999
0.3140783 -0.62553102 1.7229998
0.3265495 -0.62567168 1.7229998
0.33639523 -0.62520283 1.7229998
0.34624097 -0.62356192 1.7229999
0.35280475 -0.621921 1.723
0.31670383 -0.61863911 1.723
0.32654953 -0.61582601 1.7229998
0.33639526 -0.61576736 1.7229998
0.346241 -0.61590415 1.7229999
0.35674304 -0.61470079 1.7229999
0.36675286 -0.6145367 1.723
0.37249619 -0.61371624 1.723
0.37906 -0.60387051 1.723
0.38398287 -0.60551149 1.723
0.1929943 -0.65321147 1.7320001
0.23588191 -0.65156192 1.7320001
0.24577907 -0.65156192 1.7320001
0.1929943 -0.6416648 1.7320001
0.20948954 -0.64826286 1.7320001
0.21498793 -0.64606351 1.7320002
0.22598477 -0.64661336 1.7320002
0.23635319 -0.6449638 1.7320002
0.24577908 -0.6433143 1.7320002
0.25485146 -0.64248955 1.7320001
0.26557335 -0.64248955 1.7320001
0.27629524 -0.64248955 1.7320001
0.28536764 -0.6416648 1.7320001
0.20784001 -0.63671625 1.7320001
0.21278858 -0.63671625 1.7320001
0.24907811 -0.63836575 1.7320001
0.25650096 -0.63589144 1.7320001
0.26557335 -0.63836575 1.7320001
0.2754705 -0.63836575 1.732
0.28578001 -0.63547909 1.7320002
0.29444003 -0.63259244 1.7320001
0.27711999 -0.62187052 1.7320001
0.28583893 -0.62422699 1.7320002
0.29567713 -0.62558192 1.7320002
0.30516192 -0.62352002 1.7320002
0.31176001 -0.62187052 1.7320001
0.32495621 -0.62681907 1.7320001
0.28701717 -0.61857146 1.7320001
0.29526478 -0.61857146 1.732
0.30516192 -0.61692196 1.7320001
0.31505907 -0.6152724 1.7320002
0.32429641 -0.61593223 1.7320001
0.34804955 -0.6152724 1.7320001
0.35409781 -0.61472255 1.7320002
0.36564445 -0.61307305 1.732
0.37444195 -0.61197335 1.732
0.34804955 -0.60867429 1.7320001
0.35382289 -0.60784954 1.7320001
0.36289525 -0.60867429 1.7320001
0.15353963 -0.67418158 1.7409999
0.15751906 -0.66821241 1.7410001
0.16415143 -0.66489619 1.7410001
0.17520539 -0.66600162 1.7410001
0.18073238 -0.66323811 1.7410001
0.19565524 -0.66157997 1.7410001
0.20394571 -0.66379088 1.7410001
0.16415143 -0.6582638 1.7410001
0.17741619 -0.65494764 1.7410001
0.18349588 -0.65384221 1.7410001
0.19454984 -0.65384221 1.7410001
0.20394571 -0.65494758 1.7410001
0.18404858 -0.64665717 1.7410001
0.19233906 -0.64831525 1.7410001
0.20394573 -0.64594656 1.7410001
0.21389429 -0.64499903 1.7410001
0.22273748 -0.64444631 1.7410001
0.23379144 -0.64300931 1.7409999
0.24374001 -0.64168286 1.7410001
0.25368857 -0.64168286 1.7410001
0.26695332 -0.64168286 1.7410001
0.21721049 -0.6383667 1.7410001
0.22218478 -0.63670862 1.7410001
0.23047525 -0.63339245 1.7410001
0.24374001 -0.6383667 1.7410001
0.25147781 -0.63726133 1.7410001
0.26363713 -0.63505054 1.7410001
0.27358574 -0.63505054 1.7410001
0.28242889 -0.63394511 1.7410001
0.26695332 -0.62841815 1.7410001
0.27292246 -0.62709165 1.7409999
0.28021809 -0.62841815 1.7410001
0.29348287 -0.62510186 1.7410001
0.30674765 -0.6217857 1.7410001
0.30674765 -0.61846954 1.7410001
0.13904478 -0.68182194 1.7590001
0.14203095 -0.68174434 1.7545002
0.13904478 -0.67847145 1.7590001
0.14730515 -0.6770519 1.7536001
0.15331545 -0.6723749 1.7536001
0.15700042 -0.66600454 1.7564286
0.16354121 -0.66251314 1.7522502
0.17307208 -0.66446477 1.7530001
0.19166668 -0.66333336 1.7500001
0.1681861 -0.65634423 1.7554001
0.17399977 -0.6575222 1.7567501
0.19549286 -0.65166718 1.7545002
0.22833334 -0.64333338 1.7500001
0.23560858 -0.64247906 1.7545002
0.22833334 -0.63666672 1.7500001
0.23620859 -0.63826573 1.7590001
0.2466667 -0.63666672 1.7500001
0.14312382 -0.68194288 1.7680001
0.14649145 -0.67576891 1.768
0.24246858 -0.6432153 1.7680001
0.2424686 -0.63816381 1.7680001
