# .PCD v0.7 - Point Cloud Data file format
VERSION 0.7
FIELDS x y z
SIZE 4 4 4
TYPE F F F
COUNT 1 1 1
WIDTH 271
HEIGHT 1
VIEWPOINT 0 0 0 1 0 0 0
POINTS 271
DATA ascii
-0.59486139 0.084716573 1.3770001
-0.58527219 0.085597433 1.3785
-0.57550716 0.08500497 1.377889
-0.56553257 0.084562421 1.3773333
-0.55413729 0.08421059 1.3778236
-0.53527719 0.086117141 1.3789999
-0.59016573 0.092908576 1.3740001
-0.58488536 0.093176365 1.3744546
-0.57584262 0.093414284 1.3744549
-0.56581354 0.090373576 1.3752501
-0.54436725 0.092968315 1.3749093
-0.53585917 0.092207752 1.3747145
-0.61437184 0.066865571 1.3850001
-0.61335719 0.072547622 1.3850001
-0.59357148 0.075185716 1.3850001
-0.58565718 0.075185724 1.3850001
-0.5741626 0.074055098 1.3850001
-0.56508005 0.074658096 1.3850001
-0.55136192 0.073866673 1.3850001
-0.54476666 0.075185716 1.3850001
-0.53553337 0.075185716 1.3850001
-0.52893817 0.072547622 1.3850001
-0.59357148 0.081780955 1.3850001
-0.58697623 0.081780963 1.3850001
-0.56763023 0.081341274 1.3850001
-0.54447359 0.083393127 1.3850001
-0.53641272 0.081341274 1.3850001
-0.56238854 0.047862858 1.396
-0.52540362 0.045566406 1.396
-0.57442594 0.057066668 1.3936001
-0.56522405 0.056174099 1.3912002
-0.58644766 0.064866677 1.3900001
-0.5745334 0.063984133 1.3900002
-0.56526667 0.06221905 1.39
-0.55997145 0.06221905 1.3900001
-0.54673338 0.06221905 1.3900001
-0.53667241 0.063278101 1.3900001
-0.52025717 0.06221905 1.3900001
-0.58115238 0.07678096 1.3900001
-0.57585716 0.070161909 1.3900001
-0.58203489 0.081634931 1.39
-0.5785048 0.080752388 1.3900001
-0.59309268 0.023426192 1.40575
-0.58431983 0.024604619 1.4054615
-0.57489139 0.024469867 1.4052143
-0.56497765 0.024100952 1.4057499
-0.55475998 0.024120003 1.4069998
-0.54404002 0.024311429 1.4069998
-0.53446811 0.025182953 1.4064999
-0.52572125 0.024495717 1.4066427
-0.51486927 0.024429234 1.4069998
-0.58494085 0.033778094 1.4027145
-0.57490081 0.035632551 1.4047275
-0.56516969 0.034457508 1.4039232
-0.55508351 0.033420779 1.4038184
-0.54533821 0.033468649 1.4057499
-0.53494108 0.03369775 1.4051818
-0.5245018 0.033448812 1.4049166
-0.5148837 0.033947904 1.4035002
-0.58256501 0.043885 1.4070001
-0.57445234 0.045712303 1.4049168
-0.56726068 0.044558734 1.4036666
-0.54077148 0.041392382 1.4020001
-0.52474856 0.041392382 1.4020001
-0.51940769 0.04406286 1.4020001
-0.58186436 0.054837622 1.4045
-0.57548761 0.052074287 1.4020001
-0.58589566 -0.00135 1.4175001
-0.55427879 -0.0028959184 1.4189999
-0.59211433 0.0094200009 1.4130001
-0.55392653 0.0051934696 1.415143
-0.54448938 0.0053873472 1.415143
-0.5355503 0.005665333 1.4174
-0.52475452 0.0056991209 1.4153078
-0.59269106 0.015187346 1.4130001
-0.58508664 0.014204764 1.4130001
-0.57731146 0.012111429 1.4130001
-0.55342507 0.013793573 1.4130001
-0.54501432 0.014802856 1.4130001
-0.53559434 0.014802858 1.4130001
-0.52482861 0.014802858 1.4130001
-0.51406294 0.014802858 1.4130001
-0.50531578 0.012784286 1.4130001
-0.59211433 0.020185716 1.4130001
-0.58807713 0.020185716 1.4130001
-0.55039722 0.020185716 1.4130001
-0.53873432 0.021082858 1.4130001
-0.52348292 0.021531429 1.4130001
-0.51675433 0.020185716 1.4130001
-0.57731146 0.0471 1.4130001
-0.57271433 -0.016285716 1.4250001
-0.5632143 -0.014928573 1.4250001
-0.55507141 -0.014928573 1.4250001
-0.54828572 -0.016285716 1.4250001
-0.53335714 -0.014928573 1.4250001
-0.58424997 -0.0061071431 1.4250001
-0.57542861 -0.0081428578 1.4250001
-0.5632143 -0.0061071431 1.4250001
-0.55416667 -0.0076904767 1.4250001
-0.53335714 -0.0027142856 1.4250001
-0.53335714 0.0013571429 1.4250001
-0.57274717 -0.035582859 1.4370002
-0.56527627 -0.035246816 1.436077
-0.55563998 -0.035582859 1.4370002
-0.54469138 -0.035582855 1.4370002
-0.53511143 -0.035209611 1.4370002
-0.52521563 -0.034635387 1.4370002
-0.51458293 -0.035582859 1.4370002
-0.50500292 -0.035582859 1.4370002
-0.58164287 -0.021897145 1.437
-0.57479149 -0.025916001 1.4322001
-0.5646379 -0.026816193 1.4316667
-0.55506575 -0.026214859 1.4334
-0.54518145 -0.025943333 1.4334999
-0.53488493 -0.025698962 1.4337274
-0.5248608 -0.024970612 1.4335715
-0.51458919 -0.024464572 1.4322
-0.50506938 -0.02516182 1.4315454
-0.4974429 -0.028620003 1.4310001
-0.57648867 -0.013628572 1.4310001
-0.56558573 -0.012265715 1.4310001
-0.59011716 -0.0068142861 1.4310001
-0.5873915 -0.0081771435 1.4310001
-0.57512575 -0.0095400009 1.4310001
-0.56558573 -0.0095400009 1.4310001
-0.56550503 -0.063447855 1.4482503
-0.55531204 -0.064308003 1.4490002
-0.54786003 -0.062100001 1.4490001
-0.52336502 -0.064514995 1.4490002
-0.51405007 -0.062789999 1.4490001
-0.50507998 -0.064859994 1.4490002
-0.49542004 -0.064860001 1.4490002
-0.58476025 -0.054728579 1.4438001
-0.57484859 -0.055926669 1.4439999
-0.56510681 -0.0567265 1.4462729
-0.55516577 -0.055820573 1.4435999
-0.54572099 -0.055812865 1.4470001
-0.53543997 -0.052440006 1.4490002
-0.5238567 -0.055146202 1.4475002
-0.51517481 -0.054898575 1.4470001
-0.50511324 -0.055133224 1.4471253
-0.4944244 -0.054726381 1.4448463
-0.58419102 -0.044033337 1.4450001
-0.5785743 -0.045351431 1.4430002
-0.5407815 -0.045351431 1.4430001
-0.53459716 -0.045351431 1.443
-0.52602059 -0.045646291 1.4435999
-0.51467001 -0.04672572 1.4430001
-0.50628692 -0.04590115 1.443
-0.49474287 -0.048100002 1.4430001
-0.58390957 -0.034430478 1.4460001
-0.5785743 -0.035731427 1.4430001
-0.53459716 -0.039854288 1.4430001
-0.52772576 -0.039854288 1.4430001
-0.58650005 -0.028980002 1.4490001
-0.60001427 -0.081757143 1.455
-0.60463333 -0.078061908 1.455
-0.59447145 -0.077600002 1.455
-0.58172286 -0.076214291 1.455
-0.57481951 -0.075206503 1.455
-0.56537145 -0.074828573 1.455
-0.55497867 -0.073673822 1.455
-0.54339796 -0.073442861 1.455
-0.53488564 -0.07482858 1.455
-0.52518564 -0.074828573 1.455
-0.51548576 -0.074828573 1.455
-0.50450653 -0.075148359 1.455
-0.49504644 -0.074828565 1.455
-0.48569289 -0.076560721 1.455
-0.57230002 -0.067900002 1.455
-0.56675714 -0.067900002 1.455
-0.55220711 -0.067207143 1.455
-0.5445857 -0.065128565 1.455
-0.5348857 -0.065128572 1.455
-0.52241433 -0.067900002 1.455
-0.51742572 -0.06679143 1.455
-0.54273814 -0.058661908 1.455
-0.5348857 -0.058200002 1.455
-0.51687145 -0.056814287 1.455
-0.55475336 -0.1047162 1.4660001
-0.6142875 -0.095554091 1.4626004
-0.60516983 -0.095206037 1.4630002
-0.59580976 -0.094895445 1.4610003
-0.57504857 -0.095105201 1.4626366
-0.56464553 -0.094886549 1.4613532
-0.55492711 -0.094237663 1.4610003
-0.60620177 -0.084532008 1.4646001
-0.59831429 -0.086268574 1.4610001
-0.57373238 -0.08580476 1.4610001
-0.56491995 -0.084877156 1.4610003
-0.55518007 -0.084877148 1.4610002
-0.54850119 -0.084877148 1.4610001
-0.53013432 -0.087660007 1.4610001
-0.52364105 -0.085804768 1.4610001
-0.51538521 -0.085433714 1.4610002
-0.50508857 -0.084877148 1.4610002
-0.49534857 -0.084877156 1.4610003
-0.55448437 -0.078615725 1.4610001
-0.54850119 -0.077085145 1.4610001
-0.50230575 -0.079311438 1.4610001
-0.49395716 -0.079311438 1.4610001
-0.60182571 -0.11924285 1.473
-0.59453088 -0.11812057 1.473
-0.58779716 -0.11924285 1.473
-0.57517147 -0.11924285 1.473
-0.56479031 -0.11559544 1.4729999
-0.555659 -0.11541689 1.4729999
-0.54446447 -0.11737238 1.473
-0.53448856 -0.11812057 1.473
-0.52663261 -0.11812057 1.473
-0.51297814 -0.11830762 1.473
-0.50853574 -0.11713856 1.473
-0.56254572 -0.10802 1.473
-0.55974001 -0.10802 1.473
-0.61585432 -0.091185719 1.473
-0.6121133 -0.08744476 1.473
-0.64623702 -0.14565182 1.4848
-0.63487309 -0.14564127 1.4846666
-0.62534833 -0.14543748 1.485
-0.60545212 -0.14414164 1.4838572
-0.59455019 -0.14512496 1.4852
-0.5844934 -0.14576954 1.4860001
-0.57414794 -0.14459887 1.4856
-0.56442672 -0.14570287 1.4853333
-0.55477333 -0.1443543 1.4860001
-0.54512393 -0.14474025 1.4860001
-0.53467685 -0.14463735 1.4860001
-0.52505344 -0.1443543 1.4860001
-0.51514673 -0.14415212 1.4860001
-0.50523996 -0.1443543 1.4860001
-0.49533328 -0.14576952 1.4860001
-0.64556193 -0.1367238 1.4799999
-0.63456768 -0.13559619 1.4799998
-0.62467533 -0.13492987 1.4799999
-0.61455244 -0.13531429 1.4799998
-0.60468572 -0.13390477 1.48
-0.59443939 -0.13517275 1.4803747
-0.58438861 -0.13475049 1.4799999
-0.57581902 -0.13478857 1.4808569
-0.56496269 -0.13492988 1.4799999
-0.55555201 -0.13456251 1.483375
-0.54628187 -0.13444762 1.4860001
-0.53562748 -0.13492285 1.4814998
-0.5245797 -0.13408953 1.4819999
-0.51517147 -0.13408953 1.4819999
-0.50478053 -0.13395096 1.4804999
-0.62159997 -0.12826668 1.48
-0.61370671 -0.12770286 1.48
-0.60468572 -0.12685715 1.48
-0.59622854 -0.12756191 1.48
-0.58495235 -0.12826668 1.48
-0.57407892 -0.12625307 1.4800001
-0.56521899 -0.12544762 1.48
-0.55553854 -0.12549095 1.4804997
-0.54573017 -0.1255054 1.4806665
-0.53608888 -0.1263873 1.48
-0.52645713 -0.12756191 1.48
-0.51447624 -0.12685715 1.48
-0.50883812 -0.12826668 1.48
-0.56239998 -0.1184 1.48
-0.62159997 -0.091619052 1.48
-0.62159997 -0.088799998 1.48
-0.61878097 -0.087390475 1.48
-0.60201019 -0.15677842 1.4920001
-0.59608954 -0.15701525 1.4920001
-0.58874798 -0.15677841 1.4920001
-0.5612762 -0.15772572 1.4920001
-0.55559242 -0.15658896 1.4920001
-0.54801399 -0.15583111 1.4920001
-0.51580572 -0.15204191 1.4920001
-0.5172267 -0.1463581 1.4920001
