# .PCD v0.7 - Point Cloud Data file format
VERSION 0.7
FIELDS x y z
SIZE 4 4 4
TYPE F F F
COUNT 1 1 1
WIDTH 937
HEIGHT 1
VIEWPOINT 0 0 0 1 0 0 0
POINTS 937
DATA ascii
0.74852765 -0.53066099 1.6340001
0.75578994 -0.53169841 1.6340002
0.76253337 -0.53377336 1.6339999
0.74852765 -0.52754861 1.6340001
0.75630862 -0.52443618 1.6339999
0.76320028 -0.52488077 1.6339999
0.78587621 -0.5233987 1.6340002
0.79210103 -0.52287996 1.6340001
0.74697149 -0.51821142 1.6340001
0.7547524 -0.51821142 1.6340002
0.76097715 -0.51821142 1.6340001
0.78587621 -0.51821142 1.6340001
0.7952134 -0.51665527 1.6339999
0.81544387 -0.51198667 1.6340001
0.82114983 -0.51302415 1.6340002
0.80766284 -0.50576192 1.6340001
0.8147769 -0.50576192 1.6339999
0.82478094 -0.50576204 1.6340002
0.83380687 -0.50513941 1.6340001
0.84540051 -0.50537288 1.6339999
0.85123622 -0.50576192 1.6340001
0.81388766 -0.49953714 1.6340002
0.82581848 -0.49512795 1.6340002
0.83567429 -0.49798098 1.6339999
0.84367746 -0.49553552 1.6339999
0.82322478 -0.48553145 1.6340001
0.83723044 -0.48086286 1.6340001
0.84397393 -0.48293778 1.6340002
0.84412211 -0.47419342 1.6339999
0.71456671 -0.56254458 1.6489999
0.73341238 -0.56694192 1.649
0.77424479 -0.56066 1.649
0.68315715 -0.55280769 1.649
0.70619076 -0.55437809 1.649
0.71561366 -0.55542511 1.649
0.72084862 -0.55594862 1.649
0.74702317 -0.55542511 1.649
0.75592256 -0.55333114 1.649
0.76482195 -0.55385464 1.649
0.77188903 -0.55516338 1.649
0.8119362 -0.55123717 1.649
0.67753434 -0.54296857 1.6429999
0.68546915 -0.5435617 1.641
0.71735144 -0.54699999 1.641
0.73655337 -0.54574049 1.649
0.74519098 -0.54417002 1.649
0.75503796 -0.54527992 1.6436666
0.76435411 -0.54409349 1.6425998
0.78591114 -0.54405785 1.649
0.79560322 -0.54307067 1.6489999
0.80643952 -0.54417002 1.649
0.81429195 -0.54574049 1.649
0.67906147 -0.53684145 1.641
0.68556023 -0.535393 1.6424545
0.69547141 -0.53371567 1.641
0.7396943 -0.53553236 1.649
0.74546778 -0.53605807 1.6446925
0.75433904 -0.53710192 1.6409999
0.76111144 -0.53762287 1.641
0.77517718 -0.53293425 1.641
0.78622979 -0.53493267 1.6423331
0.79486918 -0.53418458 1.641
0.80487061 -0.53472877 1.6439091
0.81271201 -0.53361428 1.6463333
0.67984289 -0.52980858 1.641
0.68776286 -0.52952957 1.6450001
0.74749684 -0.52740967 1.6454444
0.75360978 -0.52605772 1.641
0.77496207 -0.52582574 1.6428463
0.78530067 -0.52518684 1.6436669
0.79341048 -0.52876663 1.6410002
0.80610305 -0.52700704 1.649
0.82599586 -0.52127713 1.6436666
0.83644032 -0.52232414 1.6436667
0.84543973 -0.52715653 1.649
0.74886286 -0.51856673 1.645
0.75579584 -0.51528901 1.6445556
0.76455474 -0.51440102 1.6453637
0.7748121 -0.51411825 1.6453636
0.78460133 -0.51405317 1.6452669
0.79658037 -0.51459271 1.649
0.80596846 -0.51417398 1.6489999
0.81696177 -0.5160585 1.6489999
0.82567298 -0.51718497 1.6426001
0.83657515 -0.51507306 1.6409999
0.84488058 -0.51292974 1.641
0.85488284 -0.51339859 1.641
0.8671481 -0.51307762 1.645
0.87265015 -0.51241624 1.6474001
0.7648862 -0.50460869 1.6463333
0.78585052 -0.50743002 1.6470001
0.79623145 -0.50726384 1.649
0.84237999 -0.50636572 1.641
0.85722333 -0.50272244 1.6470001
0.86609477 -0.50228471 1.6429999
0.87265015 -0.50363368 1.6474001
0.81659287 -0.49620712 1.641
0.82317913 -0.49587223 1.6409999
0.7338143 -0.58231717 1.6570001
0.74012673 -0.58389527 1.6570001
0.75906384 -0.58231717 1.6570001
0.76222003 -0.58231717 1.6570001
0.82692194 -0.58231717 1.6570001
0.8348124 -0.58231717 1.6570001
0.84112477 -0.58231717 1.6570001
0.67384666 -0.5775829 1.6570001
0.6990962 -0.57284862 1.6570001
0.70540857 -0.57284862 1.6570001
0.71487713 -0.57284862 1.6570001
0.72434574 -0.57284862 1.6570001
0.7338143 -0.5760048 1.6569998
0.74486095 -0.57600486 1.6569997
0.75630212 -0.57561028 1.6569998
0.76447439 -0.5760048 1.6569998
0.77439392 -0.57510298 1.6569998
0.82534385 -0.5760048 1.6569998
0.83436149 -0.5760048 1.6569998
0.84112477 -0.57916099 1.6570001
0.61703527 -0.56653619 1.6570001
0.62334764 -0.56842989 1.6569999
0.67429751 -0.56383091 1.6569998
0.6990962 -0.5649581 1.6570001
0.70540857 -0.56548417 1.6569998
0.71329904 -0.56811428 1.6570001
0.72381973 -0.56758827 1.6569999
0.73416495 -0.56443208 1.6569998
0.74486101 -0.56495821 1.6569997
0.7559076 -0.56590497 1.6569998
0.76506054 -0.56495816 1.6569998
0.77414334 -0.56618553 1.6569998
0.78510231 -0.56338 1.6569998
0.79167777 -0.5612759 1.6570001
0.8179794 -0.5612759 1.6570001
0.8245548 -0.56535262 1.6569998
0.83560145 -0.56732523 1.6570001
0.8442809 -0.56563443 1.6569998
0.85059339 -0.5649581 1.6570001
0.65490955 -0.55233335 1.6570001
0.66753429 -0.55075526 1.6570001
0.67424119 -0.55351686 1.6569998
0.68015909 -0.55548954 1.6570001
0.70225245 -0.55706763 1.6570001
0.71540326 -0.55285937 1.6569999
0.72592384 -0.5531224 1.6570001
0.73341978 -0.55430597 1.6569998
0.74517655 -0.55391151 1.6569998
0.75380355 -0.55391145 1.6570001
0.78746951 -0.55548954 1.6570001
0.79430795 -0.55391145 1.6569999
0.80482858 -0.55180734 1.6569999
0.81587523 -0.55496353 1.6569999
0.82534379 -0.55436236 1.6569998
0.83796859 -0.55548954 1.6570001
0.84428096 -0.55496353 1.6570001
0.85059339 -0.55391139 1.6570001
0.65490955 -0.54354113 1.6569998
0.67384666 -0.54759902 1.6570001
0.68173718 -0.5428648 1.6570001
0.6990962 -0.5428648 1.6570001
0.7058031 -0.54483742 1.6569998
0.71448261 -0.54483742 1.6569998
0.72474027 -0.54444289 1.6569998
0.7338143 -0.54444289 1.6569998
0.74117881 -0.54444283 1.6570001
0.77800101 -0.54444283 1.6570001
0.78194618 -0.54365379 1.6570001
0.79062575 -0.54128665 1.6570001
0.80640668 -0.54759902 1.6570001
0.81903148 -0.54602098 1.6570001
0.82376575 -0.54523188 1.6570001
0.84112477 -0.54444289 1.6570001
0.85690576 -0.54759902 1.6570001
0.6475451 -0.53707844 1.6570001
0.65490955 -0.53734148 1.6570001
0.68489337 -0.53497434 1.6570001
0.69804412 -0.53287011 1.6570001
0.70585948 -0.53407258 1.6569998
0.71298343 -0.53497428 1.6569999
0.72344398 -0.53542525 1.6569998
0.735708 -0.53560555 1.6569999
0.74138916 -0.53497428 1.6569999
0.8179794 -0.53392226 1.6570001
0.82494938 -0.53457975 1.6569998
0.84743714 -0.53181809 1.6570001
0.85690576 -0.53181809 1.6570001
0.86006194 -0.53339618 1.6570001
0.87505382 -0.53260714 1.6570001
0.69657123 -0.52739942 1.6569999
0.70477736 -0.52739942 1.6569999
0.71329904 -0.52866191 1.6570001
0.74486095 -0.52550566 1.6569997
0.81745338 -0.52550572 1.6569999
0.82534391 -0.52739942 1.6569999
0.83165622 -0.52708381 1.6570001
0.84428102 -0.52550572 1.6570001
0.85564327 -0.52487451 1.6569999
0.86479622 -0.52550566 1.6569997
0.87584293 -0.52550572 1.6569998
0.69612861 -0.61208576 1.6650001
0.69401431 -0.60415721 1.6650001
0.73577142 -0.60098577 1.6650001
0.74560291 -0.6035229 1.6650002
0.75321436 -0.60574293 1.6650001
0.60574293 -0.59147149 1.6650001
0.61684293 -0.59147149 1.6650001
0.65490001 -0.59147149 1.6650001
0.66441435 -0.59147149 1.6650001
0.67075717 -0.59147149 1.6650001
0.68449998 -0.59358573 1.6650001
0.69295716 -0.59464288 1.6650001
0.72705001 -0.59385002 1.6650001
0.73458213 -0.59424639 1.6650001
0.74370003 -0.59464288 1.6650001
0.7571786 -0.59385002 1.6650001
0.76590008 -0.59373677 1.6650001
0.77450818 -0.59418976 1.6650001
0.82695001 -0.59226429 1.6650001
0.83612448 -0.59373677 1.6650001
0.84455144 -0.59274006 1.6650002
0.59781432 -0.58512855 1.6650001
0.60495007 -0.58592141 1.6650001
0.61684293 -0.58512855 1.6650001
0.62318575 -0.58195716 1.6650001
0.63904291 -0.58354282 1.6650001
0.6461786 -0.58592141 1.6650001
0.65529644 -0.58552504 1.6650001
0.66441435 -0.58512855 1.6650001
0.67302245 -0.58558166 1.6650001
0.68344289 -0.58512855 1.6650001
0.70564288 -0.58195716 1.6650001
0.7160632 -0.58467549 1.6650001
0.72467142 -0.58512855 1.6650001
0.73291719 -0.58639711 1.6650002
0.74475718 -0.58724284 1.6650001
0.75502664 -0.58558166 1.6650001
0.76801425 -0.58724284 1.6650001
0.77541441 -0.58552492 1.6650001
0.78492868 -0.58512855 1.6650001
0.79380858 -0.58322567 1.6650002
0.80395716 -0.58195716 1.6650001
0.81664282 -0.58433568 1.6650001
0.8251 -0.58618569 1.6650001
0.83567142 -0.58829999 1.6650001
0.84645432 -0.58639711 1.6650002
0.85232145 -0.58433568 1.6650001
0.86104286 -0.58195716 1.6650001
0.55817145 -0.57402855 1.6650001
0.56610006 -0.57402855 1.6650001
0.57244283 -0.57561427 1.6650001
0.58829999 -0.57878572 1.6650001
0.59464288 -0.57878572 1.6650001
0.60310006 -0.57667142 1.6650001
0.61494005 -0.57434571 1.6650002
0.62477142 -0.5772 1.6650001
0.63587147 -0.57561427 1.6650001
0.65807146 -0.57561427 1.6650001
0.66532046 -0.57606733 1.6650001
0.67302257 -0.57561427 1.6650001
0.68439424 -0.57529718 1.6650002
0.69612861 -0.57521784 1.6650001
0.70564288 -0.57878572 1.6650001
0.71515721 -0.57878572 1.6650001
0.72467142 -0.57878572 1.6650001
0.73101431 -0.57878572 1.6650001
0.7722429 -0.57402855 1.6650001
0.78651434 -0.57561427 1.6650001
0.79483926 -0.5760107 1.6650001
0.8039571 -0.57561427 1.6650001
0.8150571 -0.57561433 1.6650003
0.8255229 -0.57561427 1.6650002
0.83884287 -0.57878572 1.6650001
0.84571433 -0.57667142 1.6650001
0.85311431 -0.57561427 1.6650001
0.86104286 -0.57402855 1.6650001
0.54548573 -0.56927145 1.6650001
0.55658573 -0.56745923 1.6650001
0.56564701 -0.56700617 1.6650001
0.60415721 -0.56927145 1.6650001
0.61367148 -0.56655312 1.6650001
0.62477148 -0.56530714 1.6650001
0.63904291 -0.56927145 1.6650001
0.65580612 -0.56564701 1.6650001
0.66441435 -0.56610006 1.6650001
0.6720258 -0.56673431 1.6650002
0.68598002 -0.56610006 1.6650002
0.69612861 -0.56451434 1.6650001
0.70485002 -0.56689286 1.6650001
0.71357143 -0.5661 1.6650001
0.73228282 -0.56673431 1.6650002
0.78651434 -0.56927145 1.6650001
0.79655719 -0.5682143 1.6650001
0.80395716 -0.56419718 1.6650002
0.81452852 -0.56574768 1.6650001
0.82615721 -0.56768572 1.6650001
0.83606786 -0.56570363 1.6650001
0.84518576 -0.56398571 1.6650001
0.85596859 -0.56483144 1.6650002
0.86262864 -0.56610006 1.6650001
0.55975717 -0.55975717 1.6650001
0.5962286 -0.55975717 1.6650001
0.64719802 -0.55567962 1.6650001
0.65384293 -0.55552858 1.6650001
0.66441435 -0.55623335 1.6650001
0.67313576 -0.55658573 1.6650001
0.68534571 -0.55468285 1.6650002
0.69658166 -0.5574919 1.6650001
0.70529044 -0.55552858 1.6650001
0.71410006 -0.55658573 1.6650001
0.77858573 -0.55341429 1.6650001
0.78524584 -0.55595148 1.6650002
0.79338574 -0.55235714 1.6650001
0.80475003 -0.55896431 1.6650001
0.8113572 -0.55870003 1.6650001
0.8293286 -0.55024284 1.6650001
0.83672857 -0.5551762 1.6650001
0.84558219 -0.55381072 1.6650001
0.8543036 -0.55500001 1.6650001
0.8642143 -0.55595148 1.6650002
0.65172863 -0.54548573 1.6650001
0.6771 -0.54707146 1.6650001
0.72255713 -0.54390001 1.6650001
0.8293286 -0.54548573 1.6650001
0.83567142 -0.54390001 1.6650001
0.84518576 -0.54350358 1.6650001
0.85470003 -0.54390001 1.6650001
0.86330825 -0.54344696 1.6650001
0.87372857 -0.54072857 1.6650001
0.72656 -0.63892668 1.6730001
0.73134005 -0.63892668 1.6730001
0.71859342 -0.62299341 1.6730001
0.72337335 -0.62299341 1.6730001
0.73134005 -0.6245867 1.6730001
0.42382669 -0.61980671 1.6730001
0.56669563 -0.61237115 1.673
0.62511778 -0.61130893 1.673
0.69628668 -0.61184001 1.6730001
0.70584673 -0.61184007 1.6730002
0.71859342 -0.61662006 1.6730001
0.72496659 -0.61502677 1.6730002
0.73412836 -0.6138317 1.6730002
0.74373263 -0.61378741 1.6730002
0.75364673 -0.61598271 1.6730001
0.76349646 -0.61372304 1.6730002
0.77436006 -0.61024672 1.6730001
0.55846334 -0.6030767 1.6730001
0.56404001 -0.60387331 1.6730002
0.60706002 -0.60228002 1.6730001
0.61874449 -0.6059978 1.673
0.6245867 -0.60546672 1.6730001
0.65592223 -0.6028111 1.6730002
0.66487533 -0.60296285 1.6730002
0.67079341 -0.60068667 1.6730001
0.68832004 -0.60068667 1.6730001
0.69756138 -0.60259867 1.6730001
0.70584673 -0.60387331 1.6730002
0.72587717 -0.60341805 1.6730002
0.73399562 -0.60493559 1.6730002
0.74302453 -0.6059978 1.673
0.75492132 -0.60323602 1.6730001
0.76448137 -0.60451066 1.6730001
0.77549809 -0.60478383 1.6730002
0.7823267 -0.60068667 1.6730001
0.84765339 -0.60228002 1.6730001
0.5581978 -0.59643787 1.673
0.56244671 -0.59590673 1.6730001
0.58794004 -0.59112668 1.6730001
0.59351671 -0.59351671 1.6730001
0.60323602 -0.59495074 1.6730001
0.61980671 -0.59750003 1.6730001
0.62299341 -0.59750003 1.6730001
0.64211339 -0.59272003 1.6730001
0.65406334 -0.59670341 1.6730001
0.66442007 -0.59750003 1.673
0.67079341 -0.59750003 1.6730001
0.68991339 -0.59272003 1.6730001
0.69734889 -0.59378225 1.6730002
0.70584673 -0.59431332 1.6730002
0.7143445 -0.59378225 1.6730002
0.72432935 -0.59622538 1.6730001
0.7560367 -0.59511006 1.6730001
0.76161337 -0.59351671 1.6730001
0.78392005 -0.59750003 1.6730001
0.79666668 -0.59112668 1.6730001
0.80622673 -0.59272003 1.6730001
0.81260002 -0.59272003 1.6730001
0.82375336 -0.59431338 1.6730001
0.85402668 -0.59590673 1.6730001
0.8673045 -0.59325117 1.673
0.55926001 -0.58475333 1.673
0.56563336 -0.58315998 1.6730002
0.57564861 -0.58384287 1.6730002
0.58794004 -0.58475339 1.6730001
0.59325117 -0.58687782 1.673
0.60228002 -0.58794004 1.6730001
0.69947332 -0.58794004 1.6730001
0.70584667 -0.58666533 1.6730001
0.71381342 -0.58794004 1.6730001
0.80463338 -0.58794004 1.673
0.81419331 -0.58794004 1.673
0.85880673 -0.58794004 1.6730001
0.8673045 -0.58687782 1.673
0.57710534 -0.57455605 1.6730001
0.58475339 -0.57519335 1.6730002
0.59471178 -0.57479507 1.6730002
0.60259867 -0.57646799 1.6730001
0.61343336 -0.57837999 1.6730001
0.63786453 -0.57306892 1.673
0.64530003 -0.57519341 1.6730001
0.69628668 -0.57413113 1.673
0.70266002 -0.5720067 1.6730001
0.80622673 -0.5720067 1.6730001
0.81419337 -0.5720067 1.6730001
0.82056671 -0.5720067 1.6730001
0.84606004 -0.5720067 1.6730001
0.86624223 -0.57731777 1.673
0.87155336 -0.5720067 1.6730001
0.54810667 -0.56722671 1.6730001
0.55543602 -0.566908 1.6730001
0.57731777 -0.56775784 1.673
0.58515173 -0.56603169 1.6730002
0.59391499 -0.56603169 1.6730002
0.60174888 -0.56669563 1.673
0.62617999 -0.56563336 1.673
0.63613832 -0.56603169 1.6730002
0.64211339 -0.56882006 1.6730001
0.65273553 -0.56775784 1.673
0.80782002 -0.56882006 1.6730001
0.41144478 -0.64198196 1.6810001
0.73803908 -0.64198196 1.6810001
0.79887527 -0.64838576 1.6810001
0.41251206 -0.6366455 1.6810001
0.42425239 -0.63557816 1.6810001
0.64438337 -0.63317668 1.6810001
0.65158767 -0.63237625 1.6810001
0.7339223 -0.63512075 1.681
0.74284196 -0.63237625 1.6810001
0.43065622 -0.62277055 1.6810001
0.48829049 -0.62597245 1.6810001
0.62917435 -0.62437153 1.6810001
0.63557816 -0.62597245 1.6810001
0.64518386 -0.62757337 1.6810001
0.69001049 -0.62277055 1.6810001
0.70281816 -0.62597245 1.6810001
0.73547757 -0.62661284 1.6810001
0.74398547 -0.62597245 1.681
0.75298125 -0.62650615 1.6810001
0.76365429 -0.62490517 1.6810001
0.77165902 -0.62277055 1.6810001
0.79887527 -0.62277055 1.6810001
0.42745429 -0.61476576 1.6810001
0.43065622 -0.61636668 1.6810001
0.44346383 -0.61316478 1.6810001
0.48508862 -0.61316478 1.6810001
0.55617094 -0.61444557 1.6810001
0.56353533 -0.61476576 1.6810001
0.61636674 -0.61956865 1.6810001
0.62703973 -0.61850137 1.6810001
0.63317674 -0.61556625 1.6810001
0.64518386 -0.61636668 1.6810001
0.65559006 -0.61396527 1.6810001
0.66393787 -0.61545193 1.681
0.6724 -0.61476576 1.6810001
0.6825394 -0.6152994 1.6810001
0.69001049 -0.61956865 1.6810001
0.71722674 -0.61316478 1.6810001
0.72202957 -0.61476576 1.6810001
0.73803908 -0.61796772 1.6810001
0.74764478 -0.61956865 1.6810001
0.77582157 -0.61764753 1.6810001
0.7839331 -0.61423212 1.6810001
0.79887527 -0.61956865 1.6810001
0.43065622 -0.60996288 1.6810001
0.47708386 -0.60676098 1.6810001
0.48444825 -0.60868216 1.6810001
0.54912674 -0.60676098 1.6810001
0.55553055 -0.60676098 1.681
0.56833816 -0.60035717 1.6810001
0.57442176 -0.6048398 1.681
0.58274674 -0.60195816 1.6810001
0.59448701 -0.60355908 1.6810001
0.60195816 -0.60195816 1.6810001
0.62597245 -0.60355908 1.6810001
0.63237625 -0.60996288 1.6810001
0.66759717 -0.60996288 1.6810001
0.67720288 -0.60035717 1.6810001
0.68360668 -0.60035717 1.6810001
0.71722674 -0.60569364 1.6810001
0.72309691 -0.60622734 1.6810001
0.78606766 -0.60836196 1.6810001
0.80688 -0.60035717 1.6810001
0.81552517 -0.60163796 1.6810001
0.85650957 -0.60355908 1.6810001
0.86771631 -0.60195816 1.6810001
0.87412012 -0.60035717 1.6810001
0.88212484 -0.60035717 1.6810001
0.55713153 -0.59395337 1.6810001
0.56620353 -0.59341973 1.6810001
0.57565683 -0.59349591 1.681
0.58434767 -0.59448701 1.6810001
0.59235239 -0.59715527 1.6810001
0.60035717 -0.59395337 1.6810001
0.61316478 -0.59075147 1.6810001
0.62917435 -0.59075147 1.6810001
0.63878006 -0.59235239 1.6810001
0.64518386 -0.59395337 1.6810001
0.65158767 -0.59555435 1.6810001
0.68440711 -0.59315288 1.6810001
0.69641435 -0.59155196 1.6810001
0.78926957 -0.59715527 1.6810001
0.79407239 -0.59715527 1.6810001
0.80527908 -0.59715527 1.6810001
0.86451435 -0.59715527 1.6810001
0.87732196 -0.59395337 1.6810001
0.8853268 -0.59395343 1.681
0.89333153 -0.59235239 1.6810001
0.55644542 -0.58389026 1.681
0.58594859 -0.58594859 1.6810001
0.59288603 -0.58541495 1.6810001
0.60355908 -0.58754957 1.6810001
0.61508596 -0.58370727 1.6810001
0.63717914 -0.58754957 1.6810001
0.64518386 -0.58434767 1.6810001
0.65478957 -0.58434767 1.681
0.66226071 -0.5822131 1.6810001
0.68680859 -0.58754957 1.6810001
0.69561386 -0.58674908 1.6810001
0.70281816 -0.58594859 1.6810001
0.88532674 -0.58754957 1.6810001
0.89333153 -0.58754957 1.6810001
0.36385715 -0.66141146 1.6980001
0.41560572 -0.6630286 1.6980001
0.42530859 -0.66141146 1.6980001
0.43501148 -0.66141146 1.6980001
0.44309714 -0.66141146 1.6980001
0.48676002 -0.66141146 1.6980001
0.55629712 -0.66141146 1.6980001
0.5650298 -0.66270512 1.6980002
0.6555897 -0.66270512 1.6980002
0.66464573 -0.6630286 1.6980001
0.67434859 -0.6630286 1.6980001
0.68405145 -0.6630286 1.6980001
0.69051999 -0.66464573 1.6980001
0.7185505 -0.66248959 1.6980001
0.72609717 -0.6630286 1.6980001
0.73580009 -0.6630286 1.6980001
0.74550283 -0.66270518 1.6980002
0.75520569 -0.66302854 1.6980001
0.76490861 -0.6630286 1.6980001
0.78431433 -0.6630286 1.6980001
0.79563427 -0.6630286 1.6980001
0.80307323 -0.66335201 1.6980002
0.81568688 -0.66399878 1.6980002
0.82312566 -0.66464573 1.6980001
0.36385715 -0.65494287 1.6980001
0.37679428 -0.65170854 1.6980001
0.41641429 -0.65494287 1.6980001
0.42530859 -0.65494287 1.6980001
0.43408737 -0.65494293 1.6980001
0.44579241 -0.656021 1.6980001
0.45118287 -0.65494287 1.6980001
0.48583597 -0.65309471 1.6980001
0.49538478 -0.65278667 1.6980001
0.53527433 -0.65170854 1.6980001
0.54821146 -0.65494287 1.6980001
0.55467999 -0.65494293 1.6980001
0.56438285 -0.65494287 1.6980001
0.57246864 -0.65332574 1.6980001
0.58055431 -0.65494287 1.6980001
0.59528828 -0.65530229 1.6980001
0.62745142 -0.65494281 1.6980001
0.63553715 -0.65494287 1.6980001
0.64362288 -0.65413427 1.6980001
0.65494287 -0.65534717 1.6980001
0.66464579 -0.65534717 1.6980001
0.67394429 -0.65534723 1.6980001
0.68405145 -0.65494293 1.6980001
0.71744639 -0.6544286 1.6966667
0.7252633 -0.65496147 1.697
0.73522216 -0.65604573 1.6966667
0.74550289 -0.65656 1.6980001
0.75520581 -0.65656012 1.6980001
0.76487017 -0.65527809 1.6972001
0.77501571 -0.65453863 1.6980001
0.78364813 -0.65500653 1.6945715
0.79617488 -0.65376496 1.6916001
0.80553067 -0.65505934 1.691143
0.81782818 -0.65497255 1.6964
0.82528192 -0.65440381 1.6980001
0.36304858 -0.64524001 1.6980001
0.37396428 -0.64483571 1.6980001
0.40604305 -0.64405978 1.6931999
0.41443697 -0.64599431 1.6932001
0.4249143 -0.64380956 1.6900003
0.43472317 -0.64428633 1.6926666
0.44406742 -0.64459312 1.6980002
0.45487919 -0.64431602 1.6980001
0.4673543 -0.64200574 1.6980001
0.47474694 -0.64477795 1.6980001
0.48495051 -0.64498544 1.6973335
0.49405757 -0.64527583 1.6964
0.51748574 -0.64362288 1.6980001
0.52557141 -0.64362282 1.6980001
0.53567857 -0.64483577 1.6980001
0.54543918 -0.6443159 1.6980001
0.55409861 -0.64490855 1.6950002
0.56447881 -0.64581144 1.6966667
0.57368147 -0.64483571 1.6980001
0.58378857 -0.64523995 1.6980001
0.59510857 -0.64524001 1.6980001
0.60481143 -0.64524001 1.6980001
0.62826002 -0.64604861 1.6980001
0.63556039 -0.64526159 1.6971111
0.64534748 -0.64470971 1.6932001
0.65344191 -0.6448552 1.6913334
0.66626287 -0.64524001 1.6980001
0.67380953 -0.64470094 1.6980001
0.68534517 -0.64394629 1.6980002
0.69310743 -0.64394629 1.6980002
0.70669144 -0.64524001 1.6980001
0.7175858 -0.64526236 1.697
0.72660899 -0.64530236 1.6950911
0.73476982 -0.64577228 1.6945716
0.74561203 -0.645419 1.6900003
0.75325722 -0.64541906 1.6900002
0.76430798 -0.64635044 1.6966667
0.77400064 -0.64635044 1.6966667
0.78108001 -0.64362288 1.6980001
0.79242229 -0.64434606 1.6900001
0.80615479 -0.64487594 1.6934286
0.81635046 -0.64532954 1.6939999
0.82474297 -0.64524001 1.6980001
0.83929718 -0.64362288 1.6980001
0.84576571 -0.64329946 1.6980002
0.8522343 -0.64362288 1.6980001
0.34364286 -0.63311148 1.6980001
0.35091999 -0.63230288 1.6980001
0.36256343 -0.63489026 1.6980002
0.37463811 -0.63607621 1.6980001
0.38002861 -0.63553715 1.6980001
0.3962 -0.63230288 1.6980001
0.40736476 -0.63645428 1.694
0.41431144 -0.63559145 1.696
0.42505476 -0.63618231 1.6958183
0.43266571 -0.63489711 1.692
0.44471428 -0.63499808 1.6980001
0.45441711 -0.63553715 1.6980001
0.46412003 -0.63553721 1.6980001
0.47382286 -0.63553715 1.6980001
0.48357564 -0.6349833 1.6948001
0.4959268 -0.63517368 1.6945714
0.50535715 -0.63311148 1.6980001
0.51586854 -0.63553715 1.6980001
0.52557153 -0.63553715 1.6980001
0.53527427 -0.63553715 1.6980001
0.54568094 -0.63528538 1.6965455
0.55490172 -0.63541603 1.6908003
0.56546694 -0.6355992 1.6957142
0.57374763 -0.63556719 1.697
0.58378857 -0.63715428 1.6980001
0.59510857 -0.63715428 1.6980001
0.60578173 -0.63683087 1.6980002
0.61677831 -0.63683093 1.6980002
0.62586623 -0.63516289 1.697
0.63573521 -0.63573861 1.6908891
0.6438095 -0.63656664 1.6900001
0.65614921 -0.63629842 1.6900002
0.66471881 -0.63519049 1.6913334
0.67436957 -0.63565713 1.6939999
0.68404657 -0.63524216 1.6922858
0.69410706 -0.63535953 1.6900003
0.7045325 -0.63576198 1.6900004
0.7175858 -0.63556719 1.697
0.72649926 -0.63560575 1.6957144
0.73356646 -0.63669527 1.6953334
0.74520952 -0.63898093 1.6900001
0.75440681 -0.63668162 1.6900003
0.76452386 -0.63576192 1.6900003
0.77378255 -0.635732 1.691143
0.78450203 -0.63567215 1.6934286
0.79469907 -0.63640571 1.6960001
0.80561507 -0.63589245 1.6958183
0.81407815 -0.63640195 1.6960001
0.82528192 -0.63661522 1.6980001
0.83929718 -0.63877141 1.6980001
0.84576577 -0.63445908 1.6980001
0.8522343 -0.63230288 1.6980001
0.86840576 -0.63230288 1.6980001
0.34768572 -0.62583429 1.6980001
0.35415429 -0.62543005 1.6980001
0.36385715 -0.62583429 1.6980001
0.37356001 -0.62583435 1.6980001
0.38132232 -0.62518746 1.6980002
0.39673904 -0.62529522 1.6980001
0.40698099 -0.62637335 1.6980001
0.41503286 -0.6259715 1.6940002
0.42484659 -0.62583435 1.6980001
0.43705654 -0.62552327 1.6913334
0.44583812 -0.62449533 1.6900002
0.45528269 -0.62589145 1.6964
0.46411997 -0.6267584 1.6980001
0.47345078 -0.62696004 1.6966667
0.48440915 -0.62664348 1.6932001
0.49576268 -0.62559056 1.6956002
0.50590247 -0.6255067 1.6971111
0.51541102 -0.62520915 1.6953335
0.52649558 -0.6262964 1.6980001
0.53527433 -0.62623858 1.6980001
0.54568094 -0.62559086 1.6965455
0.55490172 -0.6257543 1.6908003
0.5648309 -0.62476611 1.6916001
0.57281905 -0.62655622 1.6926666
0.5830006 -0.62499189 1.6957144
0.59470797 -0.6243124 1.6953335
0.60495281 -0.62513292 1.6950002
0.61497551 -0.62649173 1.6922858
0.62637234 -0.62565356 1.6926668
0.63790792 -0.62503177 1.6900001
0.64482284 -0.62440008 1.6926666
0.65599591 -0.62610483 1.6900003
0.66473335 -0.62650722 1.6900003
0.67439055 -0.62610483 1.6900003
0.6840477 -0.62610483 1.6900003
0.69326121 -0.62602317 1.6922858
0.70362794 -0.62604243 1.6918464
0.71669799 -0.62518507 1.6900003
0.72433615 -0.6244238 1.692
0.77418095 -0.62932384 1.6900001
0.78424048 -0.62650716 1.6900003
0.79442197 -0.62549353 1.6907276
0.80623591 -0.62502617 1.6945716
0.8121292 -0.62454063 1.6980002
0.83606291 -0.62260002 1.6980001
0.84576571 -0.62583435 1.6980001
0.85546863 -0.62583435 1.6980001
0.86517149 -0.62260002 1.6980001
0.41442442 -0.61597973 1.6943637
0.42480084 -0.61513191 1.6936367
0.43603292 -0.61479664 1.6910002
0.44559965 -0.61660838 1.694
0.47383568 -0.61566639 1.6922859
0.48339367 -0.61752063 1.6900002
0.51568282 -0.61691701 1.6962223
0.5526337 -0.61718887 1.6945714
0.57701427 -0.61564291 1.6900001
0.58416653 -0.61252153 1.6916001
0.59377092 -0.61580831 1.6926669
0.60428679 -0.61430168 1.6900003
0.61421907 -0.61570483 1.6900004
0.62400496 -0.61496425 1.6948
0.64595544 -0.61464375 1.6948
0.65507621 -0.61430162 1.6900003
0.66473335 -0.61322856 1.6900001
0.67760956 -0.61161906 1.6900001
0.68364811 -0.61436057 1.6920002
0.69371313 -0.61381066 1.6916002
0.70014286 -0.61483812 1.6900001
0.71945721 -0.6196667 1.6900001
0.72267616 -0.61000955 1.6900001
0.79550761 -0.61701524 1.696
0.80372 -0.61613137 1.6980001
0.81504011 -0.61613137 1.6980001
0.82636005 -0.61451435 1.6980001
0.83606291 -0.61613148 1.6980001
0.8448633 -0.61536622 1.697
0.85439092 -0.61555505 1.6944447
0.8637777 -0.61269206 1.6900002
0.87397146 -0.61161906 1.6900002
0.88482368 -0.61314052 1.6922858
0.89428002 -0.61289716 1.6980001
0.59176826 -0.60571748 1.6900001
0.60357141 -0.60679048 1.6900001
0.61537462 -0.60410792 1.6900002
0.64471853 -0.60507548 1.6924002
0.6534667 -0.60518098 1.6900001
0.68485236 -0.60518098 1.6900001
0.69048572 -0.60357141 1.6900001
0.70014286 -0.60357141 1.6900001
0.79735816 -0.6055029 1.6900002
0.80508387 -0.60357141 1.6900002
0.81230384 -0.60741812 1.694
0.82775509 -0.60350209 1.6916001
0.83498371 -0.60582125 1.691143
0.84499997 -0.60679048 1.6900001
0.86811495 -0.60655427 1.6953334
0.88317144 -0.60672116 1.6916001
0.89452702 -0.60405016 1.6913334
0.80959046 -0.5971334 1.6900001
0.82568574 -0.5971334 1.6900001
0.86753339 -0.5971334 1.6900001
0.87155712 -0.59471905 1.6900001
0.36557144 -0.66452765 1.7060001
0.40456572 -0.66777712 1.706
0.4136644 -0.66387773 1.7060001
0.42406288 -0.66777712 1.706
0.43381143 -0.66777712 1.706
0.44274762 -0.66452765 1.7060001
0.4547528 -0.66416663 1.7060002
0.46522352 -0.66561079 1.706
0.47670516 -0.66647732 1.7060001
0.48580384 -0.66561079 1.7060002
0.49636477 -0.66371524 1.7060001
0.50205147 -0.66290289 1.7060001
0.5247981 -0.66127813 1.706
0.53454667 -0.66290289 1.7060002
0.57516575 -0.66452765 1.7060002
0.58506203 -0.66423219 1.7060001
0.59547526 -0.66534001 1.7060001
0.60522377 -0.66209054 1.7060001
0.6125353 -0.66290289 1.7060001
0.6255334 -0.6645276 1.7060002
0.65477908 -0.66777712 1.7060001
0.68727428 -0.66452765 1.706
0.69572306 -0.66387773 1.7060001
0.70189714 -0.6645276 1.7060002
0.74901527 -0.66777712 1.7060001
0.84325147 -0.66127813 1.7060001
0.33632573 -0.6580286 1.7060001
0.34282479 -0.65152955 1.7060001
0.35907242 -0.65315431 1.7060001
0.36557144 -0.65477902 1.7060002
0.37369525 -0.65477908 1.7060001
0.41268954 -0.6580286 1.7060001
0.42081335 -0.65477908 1.7060001
0.44518477 -0.65640384 1.7060001
0.45980763 -0.65640384 1.7060001
0.46537822 -0.65431488 1.7060002
0.47605523 -0.65532064 1.7060002
0.48255432 -0.6580286 1.7060001
0.49880192 -0.65640384 1.7060001
0.50313467 -0.65369588 1.706
0.5182991 -0.65152955 1.7060001
0.52479815 -0.65477902 1.7060002
0.53361827 -0.65524334 1.7060002
0.54592001 -0.65152955 1.7060001
0.58450812 -0.65559143 1.7060002
0.5946629 -0.65477908 1.7060001
0.60820264 -0.65586227 1.706
0.6125353 -0.65477908 1.7060001
0.6255334 -0.65477908 1.706
0.68646193 -0.65396667 1.7060001
0.69539809 -0.65477908 1.7060002
0.70287204 -0.65542901 1.7060001
0.71489525 -0.65152955 1.7060001
0.78800952 -0.65477908 1.7060001
0.79450858 -0.65477908 1.7060001
0.80642349 -0.65369588 1.706
0.81075627 -0.65315431 1.7060001
0.83545256 -0.65412915 1.7060001
0.84270984 -0.65423751 1.7060002
0.33957526 -0.6450305 1.706
0.34566811 -0.64462429 1.7060002
0.35582289 -0.64503056 1.7060002
0.36622134 -0.64438057 1.7060001
0.3980667 -0.64178097 1.7060001
0.42406285 -0.64178097 1.7060001
0.43381143 -0.64178097 1.7060001
0.44680953 -0.64828002 1.7060001
0.46565676 -0.64698017 1.7060001
0.47280571 -0.64828002 1.7060001
0.49880192 -0.6450305 1.7060001
0.505301 -0.64438057 1.7060001
0.51396632 -0.6450305 1.706
0.62748307 -0.64568043 1.7060001
0.67427623 -0.64828002 1.7060001
0.68402481 -0.64828002 1.706
0.70352197 -0.64828002 1.7060001
0.78800952 -0.64665526 1.7060001
0.79385871 -0.6463303 1.7060001
0.80344474 -0.64746761 1.7060001
0.81400573 -0.64746761 1.7060001
0.82700384 -0.64178097 1.7060001
0.83512759 -0.6450305 1.7060002
0.84000188 -0.6450305 1.706
0.50855052 -0.63853145 1.7060001
0.51179999 -0.63853145 1.7060001
0.60603619 -0.63528192 1.706
0.61578476 -0.63528192 1.7060001
0.82310438 -0.63398206 1.7060001
0.83443129 -0.63528192 1.7060002
0.84325147 -0.63365716 1.7060002
0.84487629 -0.62878287 1.7060001
0.33483335 -0.67129999 1.715
0.34463334 -0.67129999 1.715
0.46550003 -0.67129999 1.715
0.47203335 -0.67129999 1.715
0.50306666 -0.67129999 1.715
0.60923332 -0.67129999 1.715
0.61413336 -0.67129999 1.715
0.62556666 -0.67129999 1.715
0.63536668 -0.67129999 1.715
0.88690001 -0.67456669 1.715
0.33529997 -0.66569996 1.715
0.34463331 -0.66570002 1.715
0.46713334 -0.66476667 1.715
0.47436666 -0.66476673 1.715
0.48510003 -0.66476667 1.715
0.49490002 -0.66639996 1.715
0.50578886 -0.66694444 1.715
0.51646006 -0.66541994 1.7149999
0.52299333 -0.66607332 1.7149999
0.5308333 -0.6680333 1.715
0.61250001 -0.6680333 1.715
0.63863331 -0.6680333 1.715
0.7791 -0.66639996 1.715
0.78563339 -0.6680333 1.715
0.79869998 -0.66476667 1.715
0.8052333 -0.66313332 1.715
0.52103335 -0.65823334 1.715
0.6843667 -0.6566 1.715
0.78890002 -0.6566 1.715
0.79624999 -0.65578341 1.715
0.8052333 -0.6566 1.715
0.85423332 -0.65170002 1.715
0.4972086 -0.67443144 1.723
0.51361811 -0.67361093 1.723
0.52346379 -0.6744315 1.723
0.53330952 -0.6744315 1.723
0.60551149 -0.6744315 1.723
0.61207527 -0.67114955 1.723
0.62356192 -0.67279047 1.723
0.63833046 -0.67114955 1.723
0.64555067 -0.67311865 1.7229999
0.65473998 -0.67279047 1.7229999
0.7728886 -0.67443144 1.723
0.78601623 -0.67361093 1.723
0.7958619 -0.67279047 1.723
0.80242568 -0.67279053 1.723
0.85821813 -0.67114955 1.723
0.86478192 -0.67114955 1.723
0.88775522 -0.67771333 1.723
0.89431906 -0.67771333 1.723
0.83852667 -0.66786766 1.723
0.84591097 -0.66704714 1.723
0.85690534 -0.66524208 1.7229999
0.86478192 -0.66458571 1.7229998
0.87421739 -0.66417551 1.7229998
0.88447332 -0.66294473 1.7229999
