# .PCD v0.7 - Point Cloud Data file format
VERSION 0.7
FIELDS x y z
SIZE 4 4 4
TYPE F F F
COUNT 1 1 1
WIDTH 108
HEIGHT 1
VIEWPOINT 0 0 0 1 0 0 0
POINTS 108
DATA ascii
-1.1330867 -0.89344001 2.4430001
-1.1261067 -0.89111334 2.4430001
-1.1168001 -0.89111334 2.4430001
-1.1051667 -0.89111334 2.4430001
-1.1330867 -0.88646001 2.4430001
-1.1253312 -0.88490891 2.4430001
-1.1144733 -0.88413334 2.4430001
-1.1051667 -0.88413328 2.4430001
-1.0935334 -0.88180667 2.4430001
-1.1128571 -0.91137141 2.46
-1.1081715 -0.91137141 2.46
-1.0987999 -0.91137141 2.46
-1.1339428 -0.90200001 2.46
-1.1245713 -0.90200001 2.46
-1.1152 -0.90434289 2.46
-1.1058285 -0.90434289 2.46
-1.0972381 -0.90512389 2.46
-1.1269143 -0.89262855 2.46
-1.1128571 -0.89731425 2.46
-1.1034857 -0.89497137 2.46
-1.0964571 -0.89497137 2.46
-1.0859141 -0.89380002 2.46
-1.0730286 -0.89262855 2.46
-1.1269143 -0.88794285 2.46
-1.0941143 -0.88794285 2.46
-1.0847428 -0.88677138 2.46
-1.0730286 -0.88794285 2.46
-1.1210001 -0.92276007 2.4780002
-1.1162801 -0.92276007 2.4780002
-1.1446 -0.91332006 2.4780002
-1.1342161 -0.91520804 2.4780002
-1.1257201 -0.91568005 2.4780002
-1.1115601 -0.91804004 2.4780002
-1.10212 -0.91804004 2.4780002
-1.0950401 -0.91568005 2.4780002
-1.08796 -0.91568005 2.4780002
-1.1210001 -0.90860009 2.4780002
-1.10212 -0.90860009 2.4780002
-1.0942534 -0.90702677 2.4780002
-1.08796 -0.90624005 2.4780002
-1.1640075 -0.95481902 2.4960001
-1.1624229 -0.94848001 2.4960001
-1.1338972 -0.93421715 2.4960001
-1.1529143 -0.9247086 2.4960001
-1.1457829 -0.92708576 2.4960001
-1.1362743 -0.92946291 2.4960001
-1.1148801 -0.92946291 2.4960001
-1.1029943 -0.92946291 2.4960001
-1.0958629 -0.92946291 2.4960001
-1.12292 -0.98405147 2.5140002
-1.1181315 -0.98405147 2.5140002
-1.12292 -0.97686863 2.5140002
-1.1157372 -0.97686857 2.5140002
-1.1085544 -0.97447431 2.5140002
-1.1631441 -0.96393949 2.5140002
-1.1548438 -0.96170491 2.5140002
-1.12292 -0.96010864 2.5140002
-1.1157372 -0.96010864 2.5140002
-1.1061602 -0.96250296 2.5140002
-1.0989772 -0.96010864 2.5140002
-1.163623 -0.9529258 2.5140002
-1.1540458 -0.9529258 2.5140002
-1.1444685 -0.9529258 2.5140002
-1.12292 -0.9529258 2.5140002
-1.1157372 -0.9529258 2.5140002
-1.1061602 -0.9529258 2.5140002
-1.0965829 -0.9529258 2.5140002
-1.1636229 -0.94334865 2.5140002
-1.1540458 -0.94334859 2.5140002
-1.1452667 -0.94414669 2.5140002
-1.1348915 -0.94334865 2.5140002
-1.1253144 -0.94334859 2.5140002
-1.1157372 -0.94334859 2.5140002
-1.1061602 -0.94334859 2.5140002
-1.0965829 -0.94334865 2.5140002
-1.0878038 -0.94255048 2.5140002
-1.164421 -0.9345696 2.5140002
-1.15644 -0.93616575 2.5140002
-1.0965829 -0.93377149 2.5140002
-1.0878038 -0.93297338 2.5140002
-1.0798229 -0.93137717 2.5140002
-1.0965829 -0.92419434 2.5140002
-1.0870057 -0.92419434 2.5140002
-1.0782267 -0.92339629 2.5140002
-1.0965829 -0.9170115 2.5140002
-1.0870057 -0.91461718 2.5140002
-1.0774287 -0.91461718 2.5140002
-1.1538686 -0.99230278 2.5320001
-1.143821 -0.99270469 2.5320001
-1.1341752 -0.99431247 2.5320001
-1.1647201 -0.98145145 2.5320001
-1.1550742 -0.98386288 2.5319998
-1.1430172 -0.98386288 2.5320001
-1.1357828 -0.98386288 2.5320001
-1.1647201 -0.97662866 2.5320001
-1.1550742 -0.97421718 2.5319998
-1.1430172 -0.97421718 2.5320001
-1.1333714 -0.97421718 2.5320001
-1.1237257 -0.97421718 2.5320001
-1.1164914 -0.97662866 2.5320001
-1.1518592 -0.96537524 2.5320001
-1.1430172 -0.96457148 2.5320001
-1.1357828 -0.96457148 2.5320001
-1.1550742 -0.9573372 2.5320001
-1.1430172 -0.9573372 2.5320001
-1.1357828 -0.9573372 2.5320001
-1.0923771 -0.94286859 2.5320001
-1.0875543 -0.94286859 2.5320001
