# .PCD v0.7 - Point Cloud Data file format
VERSION 0.7
FIELDS x y z
SIZE 4 4 4
TYPE F F F
COUNT 1 1 1
WIDTH 667
HEIGHT 1
VIEWPOINT 0 0 0 1 0 0 0
POINTS 667
DATA ascii
-1.0547762 0.79834765 1.7950001
-1.0547763 0.80518579 1.7950001
-1.0462285 0.80518574 1.7950001
-1.063501 0.79719627 1.8040001
-1.063501 0.80235052 1.8040001
-1.0549104 0.80235052 1.8040001
-1.0471791 0.80492765 1.8040001
-1.0463201 0.81265908 1.8040001
-1.0693963 0.78952193 1.8140001
-1.0655091 0.79600054 1.8140001
-1.0569575 0.79781449 1.8140001
-1.0642134 0.80334294 1.8140001
-1.0555754 0.803343 1.8140001
-1.0486648 0.81543624 1.8140001
-1.0735543 0.7799772 1.8240001
-1.0735543 0.78518862 1.8240001
-1.0655634 0.78553605 1.8240001
-1.0544457 0.78692573 1.8240001
-1.0474972 0.78692573 1.8240001
-1.0729753 0.79155809 1.824
-1.0643722 0.79288161 1.8240002
-1.0544457 0.79387432 1.8240002
-1.0474972 0.79387432 1.824
-1.0613943 0.80082291 1.8240001
-1.0534531 0.803801 1.8240002
-1.0474972 0.80256009 1.8240001
-1.0523612 0.81402522 1.8240001
-1.0466286 0.81558859 1.8240001
-1.0162286 0.81819433 1.8240001
-1.0023315 0.81819433 1.8240001
-1.0509714 0.82166862 1.8240001
-1.04576 0.82166862 1.8240001
-1.0162286 0.82166862 1.8240001
-1.0023315 0.82166862 1.8240001
-1.0805972 0.75938576 1.8330001
-1.0805972 0.76636863 1.8330001
-1.0771058 0.76986003 1.8330001
-1.0805972 0.77509719 1.8330001
-1.0744872 0.77597004 1.8330001
-1.0805972 0.78033429 1.8330001
-1.072916 0.78173083 1.8329999
-1.0648857 0.7838257 1.8330001
-1.0565935 0.78426224 1.8330001
-1.0465558 0.78644431 1.8330001
-1.06314 0.79080856 1.8330001
-1.0561572 0.79080856 1.8330001
-1.0456829 0.79430002 1.8329999
-1.0456829 0.80477428 1.8329999
-1.0363723 0.80593807 1.8330001
-1.0247344 0.80826575 1.8330001
-1.0072771 0.80826575 1.8330001
-1.0526658 0.81175715 1.8330001
-1.0456829 0.81524855 1.8329999
-1.0352086 0.81524855 1.8329999
-1.0247344 0.81524855 1.8329999
-1.0146965 0.81524855 1.8330001
-1.0037857 0.81874001 1.8330001
-0.99680293 0.81874001 1.8330001
-0.75240284 0.81874001 1.8330001
-1.0439372 0.82397717 1.8330001
-1.0352086 0.82397717 1.8330001
-1.0264801 0.82397711 1.8330001
-1.0142599 0.82397705 1.8330001
-1.0020401 0.82397717 1.8330001
-0.99680293 0.82397711 1.8330001
-0.75240284 0.82223141 1.8330001
-0.92676574 0.73720002 1.8430001
-0.91272378 0.73895526 1.8430001
-0.90745813 0.73895526 1.8430001
-1.0838594 0.76265097 1.8430001
-1.0763998 0.76396739 1.8430002
-1.06894 0.76703906 1.8430001
-1.0829818 0.77054954 1.8430001
-1.075961 0.77406001 1.8430002
-1.0642594 0.77523017 1.8430001
-1.0548981 0.77757049 1.8430001
-1.0461218 0.77757049 1.8430001
-0.80214381 0.77406001 1.8430001
-0.79863334 0.77230477 1.8430001
-1.0724505 0.78108096 1.8430001
-1.0654296 0.78108096 1.8430001
-1.0543966 0.78358841 1.8430002
-1.0461218 0.78634667 1.8430001
-1.0429626 0.79582494 1.8430001
-1.0350053 0.79629302 1.8430001
-1.0420264 0.80331397 1.8430001
-1.0342741 0.80609322 1.8430002
-1.0256442 0.80799466 1.8430001
-1.0197934 0.80916482 1.8430001
-0.97064668 0.80214381 1.8430001
-0.74422097 0.80916482 1.8430001
-1.0233037 0.81267524 1.8430001
-1.0155808 0.81618577 1.8430001
-0.78108096 0.81794095 1.8430001
-0.77335793 0.81829202 1.8430001
-0.76453155 0.81668729 1.8430002
-0.7547524 0.81618577 1.8430001
-0.74808252 0.81618577 1.8430001
-0.69682956 0.81969619 1.8430001
-0.68454289 0.81443048 1.8430001
-0.67927718 0.81443048 1.8430001
-1.0092618 0.82320666 1.8430001
-0.99592209 0.82531297 1.8430001
-0.78108096 0.8249619 1.8430001
-0.77406001 0.82496196 1.8430001
-0.76352859 0.82496196 1.8430001
-0.75299716 0.8249619 1.8430001
-0.74948668 0.8249619 1.8430001
-0.69682956 0.82320666 1.8430001
-0.99522001 0.83022761 1.8430001
-0.92650002 0.73943526 1.853
-0.92473525 0.7429648 1.853
-1.0923877 0.75531811 1.853
-1.0853286 0.75567108 1.853
-0.9017933 0.75355333 1.853
-0.89708728 0.75472981 1.853
-1.0923877 0.76061237 1.853
-1.0853286 0.76061231 1.853
-1.0747401 0.76414198 1.8529999
-1.0641514 0.76414198 1.853
-1.0553277 0.76590669 1.853
-0.88414574 0.76061237 1.853
-1.0729753 0.77473056 1.853
-1.063143 0.77422631 1.8529999
-1.0535629 0.77473056 1.853
-1.0453273 0.77708358 1.853
-0.82061428 0.77120101 1.853
-0.81405944 0.77573901 1.8529999
-1.0517981 0.78531909 1.853
-1.0465038 0.78531909 1.853
-0.81254679 0.78481483 1.8529999
-0.80531973 0.78531909 1.853
-0.79943711 0.78178954 1.853
-1.0453273 0.79473114 1.853
-1.0352094 0.79731941 1.853
-1.0276798 0.79826063 1.853
-1.0147381 0.79943711 1.853
-0.99003148 0.79943711 1.853
-0.98297232 0.79943711 1.853
-0.97708982 0.79826063 1.853
-0.95473617 0.79943711 1.853
-0.82414383 0.79943711 1.853
-0.81355524 0.79590768 1.853
-0.8064962 0.79943711 1.853
-0.76237714 0.79943711 1.853
-1.0429744 0.80296665 1.853
-1.0341505 0.80473143 1.853
-1.0288563 0.80296665 1.853
-0.99003148 0.80296665 1.853
-0.9841488 0.80414319 1.853
-0.97679567 0.80473143 1.853
-0.95403033 0.80508441 1.853
-0.93532383 0.8064962 1.853
-0.89826381 0.80296665 1.853
-0.81355524 0.80296665 1.853
-0.8064962 0.80296665 1.853
-0.78178954 0.8064962 1.853
-0.77473056 0.8064962 1.853
-0.76343602 0.80508441 1.853
-0.75355339 0.8064962 1.853
-1.0244443 0.81090808 1.853
-1.0129733 0.81708479 1.853
-1.00062 0.81708479 1.853
-0.98297232 0.81708479 1.853
-0.97473687 0.81473178 1.853
-0.95650095 0.81355524 1.853
-0.93708861 0.81002575 1.853
-0.89473432 0.8123787 1.853
-0.88502812 0.81443763 1.853
-0.79414284 0.81179047 1.853
-0.7848779 0.81311405 1.8529999
-0.77573901 0.81305104 1.8529999
-0.76343602 0.81143761 1.853
-0.75425923 0.81143749 1.853
-0.74531776 0.81473178 1.853
-0.73943526 0.81708479 1.853
-0.70414001 0.81708479 1.853
-0.69425738 0.81496704 1.853
-0.68649238 0.81355524 1.853
-1.0129733 0.82237905 1.853
-1.0017966 0.82296729 1.853
-0.99003148 0.82590854 1.853
-0.9847371 0.82414383 1.853
-0.97414863 0.82414377 1.853
-0.96650124 0.82296729 1.853
-0.92297047 0.82414383 1.853
-0.8446151 0.82626152 1.853
-0.8356148 0.82679093 1.853
-0.82590854 0.82767332 1.853
-0.78178954 0.82061428 1.853
-0.76414192 0.82061428 1.853
-0.75002384 0.82414377 1.853
-0.74561191 0.82326144 1.853
-0.73855287 0.82502615 1.853
-0.71472859 0.82590854 1.853
-0.70414001 0.82273197 1.853
-0.69399267 0.82458502 1.8529999
-0.68472767 0.8259086 1.853
-0.67766857 0.82590854 1.853
-0.99003148 0.83120286 1.853
-0.98473716 0.83120286 1.853
-0.97238386 0.83120286 1.853
-0.96532476 0.83120286 1.853
-0.84532094 0.83120281 1.853
-0.83473235 0.83120281 1.853
-0.82590854 0.83120286 1.853
-0.75002384 0.83120286 1.853
-0.74649429 0.83120286 1.853
-0.73767048 0.83120286 1.853
-1.0911857 0.69729429 1.863
-1.0858629 0.69729429 1.863
-1.095444 0.70439148 1.8630002
-1.0830748 0.70388454 1.863
-1.0758085 0.70557433 1.863
-1.0698943 0.70794004 1.863
-1.0947342 0.71148854 1.863
-1.0805401 0.71148854 1.863
-1.0734428 0.7132628 1.863
-1.0961536 0.73774803 1.8630002
-1.0858629 0.73987716 1.863
-0.94392002 0.73987716 1.863
-1.0947343 0.74519998 1.863
-1.0840884 0.74519998 1.863
-1.0758085 0.74579144 1.863
-0.94391996 0.74519998 1.863
-1.0942272 0.75305754 1.863
-1.0836449 0.75362784 1.863
-1.0752171 0.75407147 1.863
-1.0663457 0.75407147 1.863
-1.0556999 0.75451493 1.863
-1.0450543 0.75584573 1.863
-1.0352957 0.75673288 1.863
-0.94569427 0.75229716 1.863
-0.93504858 0.75229716 1.863
-0.92528999 0.75141001 1.863
-0.91730571 0.75052285 1.863
-0.89424002 0.75762004 1.863
-0.8871429 0.75584573 1.863
-1.0823143 0.76116854 1.863
-1.0758085 0.76235145 1.863
-1.0654585 0.7620557 1.863
-1.0552565 0.76427352 1.863
-1.0450543 0.76471716 1.863
-1.0344086 0.7647171 1.863
-0.94569427 0.76826572 1.863
-0.90524065 0.76542681 1.8630002
-0.89601421 0.76471716 1.863
-0.88492501 0.7647171 1.863
-0.84278572 0.76826572 1.863
-1.0533344 0.77299714 1.863
-1.0450544 0.77536291 1.863
-1.0344086 0.77536291 1.863
-1.0242698 0.77637678 1.863
-1.0148914 0.77713716 1.863
-1.0064636 0.77580649 1.863
-0.97408289 0.77891141 1.863
-0.96521139 0.77891141 1.863
-0.95988858 0.77181429 1.863
-0.91375715 0.77536291 1.863
-0.90429431 0.77299714 1.863
-0.89672393 0.77323377 1.8630002
-0.88486159 0.77434903 1.863
-0.84704399 0.77323377 1.8630002
-0.83518165 0.77434903 1.863
-0.82770431 0.77625 1.863
-0.80375147 0.77891141 1.863
-1.0521514 0.78955716 1.863
-1.0446109 0.78645217 1.863
-1.0344086 0.7860086 1.863
-1.0237628 0.7860086 1.863
-1.0152463 0.78529888 1.8630002
-1.0055765 0.78556496 1.863
-0.99537426 0.78702247 1.863
-0.98472863 0.78778291 1.863
-0.97408295 0.7860086 1.863
-0.96556628 0.78671831 1.8630002
-0.95634001 0.78778291 1.863
-0.94569439 0.78778285 1.863
-0.93593574 0.78867 1.863
-0.9279514 0.78955716 1.863
-0.9143486 0.78719145 1.863
-0.90488577 0.78955716 1.863
-0.89956284 0.78778291 1.863
-0.83568859 0.7860086 1.863
-0.82605666 0.78651553 1.863
-0.80304176 0.78742802 1.8630002
-0.79665428 0.78955716 1.863
-1.0450543 0.79487997 1.863
-1.0344086 0.79487997 1.863
-1.0237628 0.79487997 1.863
-1.0166657 0.79665428 1.863
-1.0024714 0.79488003 1.863
-0.99537426 0.79487997 1.863
-0.98472852 0.79487997 1.863
-0.97408295 0.79487997 1.863
-0.96521139 0.79488003 1.863
-0.95634001 0.79488003 1.863
-0.94569433 0.79399288 1.863
-0.93504858 0.79310578 1.863
-0.92440289 0.79310578 1.863
-0.91375715 0.79487997 1.863
-0.90488577 0.79665428 1.863
-0.89601421 0.79665428 1.863
-0.88536859 0.79665428 1.863
-0.87294865 0.79665428 1.863
-0.8658514 0.79665428 1.863
-0.85520577 0.79665428 1.863
-0.84396857 0.79547143 1.863
-0.83568859 0.79487997 1.863
-0.8250429 0.79487997 1.863
-0.81262285 0.79665428 1.863
-0.80375147 0.79487997 1.863
-0.79665428 0.79488003 1.863
-0.78423429 0.79665428 1.863
-0.7735886 0.79665428 1.863
-1.0308601 0.80375147 1.863
-1.0249457 0.80256861 1.863
-1.0148915 0.80286431 1.863
-1.0055131 0.80425841 1.863
-0.99596572 0.80256861 1.863
-0.98650289 0.80020285 1.863
-0.97408283 0.80375147 1.863
-0.96521139 0.80375147 1.863
-0.95279145 0.80552578 1.863
-0.94658142 0.80463862 1.863
-0.93859714 0.80730003 1.863
-0.92203718 0.80611724 1.863
-0.91331363 0.80419505 1.863
-0.90524065 0.80304176 1.8630002
-0.89601433 0.80375147 1.863
-0.88655144 0.80256861 1.863
-0.8747229 0.80197716 1.863
-0.84420508 0.80446118 1.8630002
-0.83568859 0.80375141 1.863
-0.82459921 0.80375147 1.863
-0.8132143 0.8013857 1.863
-0.80375147 0.80375147 1.863
-0.79523486 0.80446118 1.8630002
-0.7860086 0.80375147 1.863
-0.77491933 0.80419505 1.863
-0.76826572 0.80020285 1.863
-0.74519998 0.80730003 1.863
-0.73987716 0.80730003 1.863
-1.0326343 0.81084853 1.863
-1.0227489 0.81389028 1.863
-1.0145366 0.81510687 1.8630002
-1.0055765 0.81484073 1.863
-0.99537426 0.81439722 1.863
-0.98543823 0.81652629 1.8630002
-0.97319579 0.81617141 1.863
-0.96556628 0.81510687 1.8630002
-0.9551571 0.81558007 1.863
-0.9467082 0.81490409 1.863
-0.93682289 0.81439716 1.863
-0.92338902 0.81389028 1.863
-0.91375721 0.81439716 1.863
-0.90524065 0.81368744 1.8630002
-0.89601427 0.8132143 1.863
-0.88536853 0.81262285 1.863
-0.8782714 0.81084853 1.863
-0.86407715 0.81617141 1.863
-0.84589076 0.81484079 1.863
-0.83568859 0.8143971 1.863
-0.82548636 0.81395358 1.863
-0.81794572 0.81084853 1.863
-0.80233204 0.81368744 1.8630002
-0.79547143 0.8132143 1.863
-0.78955716 0.81084853 1.863
-0.77536291 0.81557995 1.863
-0.75052285 0.81084853 1.863
-0.74519998 0.81439716 1.863
-0.7363286 0.81617147 1.863
-0.7249732 0.81581658 1.8630002
-0.71148854 0.81794572 1.863
-0.70616573 0.81794572 1.863
-1.0131172 0.8250429 1.863
-1.0053103 0.82433319 1.8630002
-0.99655718 0.82385993 1.863
-0.98295426 0.8250429 1.863
-0.97230864 0.82504284 1.863
-0.96556628 0.82575262 1.8630002
-0.95678353 0.82459921 1.863
-0.94658148 0.82238144 1.863
-0.93504858 0.82504284 1.863
-0.92338896 0.82453585 1.863
-0.91375721 0.82504278 1.863
-0.90488577 0.8250429 1.863
-0.89645779 0.82548636 1.863
-0.8858754 0.82605666 1.863
-0.87649715 0.82859141 1.863
-0.84562457 0.82291377 1.8630002
-0.83568859 0.82504278 1.863
-0.82554972 0.82605678 1.863
-0.8143971 0.8268171 1.863
-0.80330789 0.82548636 1.863
-0.79487997 0.82504278 1.863
-0.76826572 0.82149428 1.863
-0.74697429 0.82859141 1.863
-0.73588502 0.82548636 1.863
-0.72612643 0.82548642 1.863
-0.71562856 0.82504278 1.863
-1.0024714 0.83214003 1.863
-0.99892288 0.83391428 1.863
-0.98295426 0.83391428 1.863
-0.97408289 0.83391428 1.863
-0.96521139 0.83391428 1.863
-0.95811427 0.83391428 1.863
-0.93150002 0.83391428 1.863
-0.92440289 0.83391428 1.863
-0.91375715 0.83391428 1.863
-0.90488577 0.83391428 1.863
-0.89601421 0.83391428 1.863
-0.88536853 0.83391428 1.863
-0.8747229 0.83391428 1.863
-0.86762571 0.83391428 1.863
-0.82326859 0.83391428 1.863
-0.81439716 0.83391428 1.863
-0.80375147 0.83391428 1.863
-0.79488003 0.83391428 1.863
-0.74697429 0.83391428 1.863
-0.73455429 0.83214003 1.863
-0.72568291 0.83214003 1.863
-0.7132628 0.83214003 1.863
-1.1006106 0.7046048 1.8730001
-1.0952592 0.70817244 1.8730001
-1.0827725 0.70817244 1.8730001
-1.0774209 0.70817244 1.8730001
-1.1015025 0.71619964 1.8730001
-1.0943671 0.71619964 1.8730001
-1.0863402 0.71744823 1.8730001
-1.0738535 0.7170915 1.8730001
-1.0673128 0.717686 1.8730001
-1.0453124 0.71887529 1.8730001
-1.0381773 0.7170915 1.8730001
-1.1023945 0.7260105 1.8730001
-1.0952592 0.72601056 1.8730001
-1.0863401 0.7260105 1.8730003
-1.0761468 0.72652018 1.8730001
-1.0649344 0.72779429 1.8730001
-1.0542315 0.7260105 1.8730001
-1.0453124 0.72422671 1.8730001
-1.0378205 0.72458351 1.8730001
-1.1017998 0.73433495 1.8730001
-1.0952592 0.73492956 1.8730001
-1.0863401 0.73492956 1.8730001
-1.0756372 0.73492956 1.8730001
-1.0399611 0.73492956 1.8730001
-1.0239067 0.73671341 1.8730001
-1.1006106 0.74028099 1.8730001
-1.0952592 0.74028099 1.8730001
-1.0856266 0.7417081 1.8730001
-1.0756372 0.74384868 1.8730003
-1.0661235 0.74503785 1.8730001
-1.0577991 0.74741626 1.8730001
-1.0470963 0.74741626 1.8730001
-1.0378205 0.74527562 1.8730001
-1.0256906 0.74384868 1.8730003
-1.0149877 0.74563247 1.8730001
-1.0042847 0.74652433 1.8730001
-0.97574395 0.74622703 1.8730001
-0.96860862 0.74741626 1.8730001
-0.95433813 0.74384862 1.8730001
-1.0738535 0.75098389 1.8730001
-1.0640423 0.75187576 1.8730001
-1.0533397 0.75276768 1.8730001
-1.0453124 0.75276768 1.8730001
-1.0363933 0.75455153 1.8730003
-1.0256906 0.75455141 1.8730003
-1.0149877 0.75455147 1.8730003
-1.0042849 0.75455147 1.8730003
-0.9828791 0.75455147 1.8730001
-0.97360337 0.755265 1.8730001
-0.96555072 0.75557083 1.8730001
-0.95701385 0.75365961 1.8730001
-0.92579722 0.75811911 1.8730001
-0.91554028 0.75499743 1.8730001
-0.9079591 0.75633526 1.8730001
-1.0328257 0.76525438 1.8730001
-1.0239067 0.76436245 1.8730001
-1.0149878 0.76525432 1.8730003
-1.0042849 0.76525432 1.8730003
-0.99358201 0.76525438 1.8730003
-0.98466289 0.76525438 1.8730001
-0.97529793 0.76525438 1.8730001
-0.96504104 0.76525438 1.8730003
-0.95433807 0.76525438 1.8730003
-0.94363528 0.76525432 1.8730003
-0.93471622 0.76525432 1.8730001
-0.92579722 0.76525438 1.8730003
-0.91687816 0.76525432 1.8730001
-0.88298577 0.76703817 1.8730001
-0.87941819 0.76703817 1.8730001
-1.0328257 0.77238953 1.8730001
-1.0256906 0.77417332 1.8730001
-1.0158795 0.77328146 1.8730001
-1.0038389 0.77551121 1.8730001
-0.99358201 0.77595717 1.8730003
-0.98466295 0.77595717 1.8730001
-0.97574395 0.77595717 1.8730003
-0.96504104 0.77595717 1.8730001
-0.9547841 0.77640307 1.8730001
-0.94363528 0.77595711 1.8730003
-0.93471622 0.77595717 1.8730001
-0.92579716 0.77595711 1.8730003
-0.91568893 0.77595717 1.8730001
-0.89725626 0.7795248 1.8730001
-0.88298577 0.77595717 1.8730001
-0.87636024 0.77697647 1.8730001
-0.86443412 0.77809775 1.8730001
-0.85801244 0.77774101 1.8730001
-0.84730959 0.7795248 1.8730001
-1.0030955 0.78428167 1.8730001
-0.99358195 0.78487629 1.8730001
-0.98525745 0.78428167 1.8730001
-0.97574395 0.78309244 1.8730001
-0.96432751 0.78523296 1.8730001
-0.95433807 0.78487629 1.8730001
-0.94363528 0.78487617 1.8730001
-0.93471628 0.78487623 1.8730001
-0.92579716 0.78487617 1.8730001
-0.91438085 0.78451949 1.8730001
-0.90439147 0.78487629 1.8730001
-0.89368868 0.78487629 1.8730001
-0.884175 0.78547078 1.8730001
-0.87585062 0.78487617 1.8730001
-0.86514777 0.78487629 1.8730001
-0.8544448 0.78487617 1.8730001
-0.84463382 0.78398436 1.8730001
-0.80330896 0.78547078 1.8730001
-1.022123 0.79736292 1.8730001
-1.0157012 0.79593593 1.8730001
-0.96325719 0.79736292 1.8730001
-0.94006771 0.79022771 1.8730001
-0.93471628 0.79022771 1.8730001
-0.92758095 0.7920115 1.8730001
-0.91331053 0.79022771 1.8730001
-0.90296441 0.79379529 1.8730001
-0.89368862 0.79379535 1.8730003
-0.8847695 0.79379535 1.8730001
-0.87585062 0.79379529 1.8730003
-0.86514765 0.79379529 1.8730003
-0.8544448 0.79379535 1.8730003
-0.84730959 0.7920115 1.8730001
-0.8009305 0.79022771 1.8730001
-0.79379529 0.79379529 1.8730003
-0.78487629 0.79379535 1.8730001
-0.77863288 0.79468721 1.8730001
-1.0149878 0.80390358 1.8730001
-0.96236533 0.8044982 1.8730001
-0.95523 0.80360627 1.8730001
-0.9436354 0.80449814 1.8730003
-0.93471628 0.8044982 1.8730001
-0.92579728 0.80390358 1.8730001
-0.89368862 0.8009305 1.8730001
-0.88476956 0.80360627 1.8730001
-0.87347215 0.8068766 1.8730001
-0.86514765 0.80551749 1.8730001
-0.85503942 0.80509281 1.8730001
-0.79617375 0.80211973 1.8730001
-0.78309244 0.80271435 1.8730001
-1.0247986 0.81252527 1.8730001
-1.0149877 0.81520098 1.8730001
-0.9828791 0.81876868 1.8730001
-0.97812229 0.81757945 1.8730001
-0.94363534 0.81163341 1.8730001
-0.93507302 0.81520098 1.8730001
-0.89012104 0.81163341 1.8730001
-0.884175 0.81401181 1.8730001
-0.87585056 0.81520104 1.8730003
-0.86470175 0.81475508 1.8730001
-0.85658538 0.81448746 1.8730001
-0.82233626 0.81876868 1.8730001
-0.8157106 0.81622028 1.8730001
-0.74147016 0.81401181 1.8730001
-0.73552418 0.81401181 1.8730001
-0.95077056 0.82947147 1.8730001
-0.94274342 0.82768774 1.8730001
-0.93507302 0.82590389 1.8730001
-0.89012104 0.82590389 1.8730001
-0.88441277 0.82519037 1.8730001
-0.87585062 0.82590389 1.8730003
-0.86470175 0.82634985 1.8730001
-0.85712051 0.82679582 1.8730001
-0.82519037 0.82447684 1.8730001
-0.81520098 0.82412004 1.8730001
-0.74384862 0.82590389 1.8730001
-0.73314577 0.82233626 1.8730001
-0.72422671 0.82412004 1.8730001
-0.71887529 0.82233626 1.8730001
-0.95433813 0.83482295 1.8730001
-0.94434881 0.83517969 1.8730001
-0.87406671 0.8330391 1.8730001
-0.86514765 0.83482295 1.8730001
-0.85801244 0.8330391 1.8730001
-0.95433813 0.84017438 1.8730001
-0.94363528 0.84017438 1.8730001
-0.86514765 0.84017438 1.8730001
-1.0706201 0.7191267 1.8830001
-1.0670334 0.7191267 1.8830001
-1.0813801 0.72630006 1.8830001
-1.0742067 0.72749561 1.883
-1.0652401 0.72450674 1.8830001
-1.0580667 0.72450674 1.8830001
-1.0419267 0.72988671 1.8830001
-1.0338569 0.72630006 1.8830001
-1.0248901 0.72361004 1.8830001
-1.0150267 0.72630006 1.8830003
-1.0084511 0.72869116 1.883
-1.0742067 0.73706007 1.8830001
-1.0670334 0.73347336 1.8830001
-1.0550778 0.73466891 1.883
-1.0455134 0.73526669 1.8830001
-1.0347533 0.73526669 1.8830003
-1.0248902 0.73436999 1.8830001
-1.0150267 0.73347336 1.8830001
-1.0078533 0.73347336 1.8830001
-0.99350679 0.73526669 1.8830001
-0.98812675 0.73706007 1.8830001
-1.0742067 0.74064672 1.8830001
-1.0526867 0.74064672 1.8830001
-1.0447961 0.74351609 1.8830001
-1.0374434 0.74333668 1.8830001
-1.0222001 0.7424401 1.8830001
-1.014668 0.74351603 1.8830001
-1.0066577 0.74423337 1.8830003
-0.99290895 0.74303788 1.883
-0.98812675 0.74782002 1.8830001
-1.0024734 0.75499338 1.883
-0.9988867 0.7567867 1.8830001
-0.98364335 0.75499338 1.8830001
-0.97019339 0.75320005 1.8830001
-0.96541119 0.75260228 1.883
-1.0024734 0.76216674 1.8830001
-0.99530005 0.76216674 1.883
-0.9857356 0.76455784 1.883
-0.96302009 0.80879337 1.8830001
-0.93432677 0.80520672 1.8830001
-0.91639346 0.80162007 1.883
-0.73347336 0.81955338 1.8830001
-0.72988671 0.81955338 1.8830001
-1.0660515 0.72332764 1.8940001
-1.0804819 0.73415047 1.8940001
-1.0768743 0.73595428 1.8940001
-1.0624439 0.7377581 1.8940001
-1.0407981 0.73415047 1.8940001
-1.0353868 0.73415047 1.8940001
-1.0281714 0.73234665 1.8940001
-1.0732667 0.74858093 1.8940001
-1.0263677 0.74136573 1.8940001
-1.0155448 0.74136573 1.8940001
-1.0054435 0.7471379 1.8940001
-0.99510163 0.74737841 1.8940001
-1.0047219 0.75399244 1.8940001
-0.99570286 0.77383429 1.8940001
-1.04992 0.72714669 1.904
-1.0481067 0.73077333 1.904
-1.0825599 0.74709332 1.904
-1.0753068 0.74631613 1.9040002
-1.0680534 0.74709332 1.904
-1.0118401 0.74346673 1.904
-1.0825599 0.75253338 1.904
-1.0740978 0.75555557 1.9040002
-1.0649449 0.75616008 1.9040002
-1.0051912 0.75857776 1.9039999
-1.0716801 0.76341337 1.904
-1.0045867 0.76522672 1.904
-0.99914664 0.76341337 1.904
