# .PCD v0.7 - Point Cloud Data file format
VERSION 0.7
FIELDS x y z
SIZE 4 4 4
TYPE F F F
COUNT 1 1 1
WIDTH 406
HEIGHT 1
VIEWPOINT 0 0 0 1 0 0 0
POINTS 406
DATA ascii
0.95823783 0.80401117 1.883
0.95943344 0.8141734 1.8830001
0.95764005 0.82314003 1.8830001
0.94598335 0.83479673 1.8830001
0.95584673 0.83748674 1.8830001
0.94867343 0.84466004 1.883
0.95584667 0.84466004 1.8830003
0.97019339 0.84824669 1.8830001
0.94867337 0.85183334 1.8830001
0.95584673 0.85183334 1.883
0.97019339 0.85183334 1.8830001
0.95782292 0.80991048 1.8940001
0.96594 0.8090086 1.8940001
0.97345591 0.80870795 1.8940001
0.95782292 0.81532192 1.8940001
0.96503806 0.81532192 1.8940001
0.97586101 0.81532192 1.8940001
0.94700003 0.82794857 1.8940001
0.95466614 0.82479191 1.8940001
0.96563935 0.82373971 1.8940001
0.97225332 0.82073337 1.8940001
0.95524597 0.83464849 1.8940001
0.96503806 0.83516383 1.8940002
0.96684182 0.84508479 1.8940001
0.97483027 0.84650201 1.8940001
0.96864569 0.85500574 1.8940001
0.97586095 0.85500574 1.8940001
0.98307616 0.85500574 1.8940001
0.97013336 0.71989334 1.904
0.96650666 0.72352004 1.904
0.9810133 0.72714669 1.904
0.96529776 0.77671117 1.9039999
0.96650666 0.80693334 1.904
0.97375995 0.80693334 1.9039999
0.98464006 0.80693334 1.9039999
0.95804447 0.81660444 1.9039999
0.9858489 0.81297779 1.9040002
0.99189335 0.81599998 1.904
0.95562667 0.82416004 1.904
0.97738665 0.82869333 1.904
0.98515809 0.82610285 1.9040002
0.99189335 0.82144004 1.904
0.97738665 0.83594662 1.9039999
0.9810133 0.83594662 1.9039999
0.97738665 0.84320003 1.904
0.98464006 0.84501338 1.904
0.98705786 0.85166216 1.9039999
0.99189335 0.85408002 1.9039999
0.99189335 0.86133337 1.904
0.97573811 0.62556666 1.9150001
0.97938579 0.63286191 1.9150001
0.96844292 0.71675718 1.9150001
0.97573811 0.71675712 1.9150001
0.98546511 0.71554136 1.9150001
0.99215245 0.71675718 1.9150001
0.97625923 0.72353131 1.9150001
0.98485726 0.72405243 1.9150001
0.99352032 0.7245084 1.9150001
0.96844292 0.73499531 1.9150001
0.97521704 0.73551637 1.9150001
0.9848572 0.73864287 1.9150001
0.96844292 0.74411428 1.9150001
0.97528219 0.74548215 1.9150001
0.98303336 0.74411428 1.9150001
1.0012715 0.74593812 1.9150001
0.97695398 0.75566512 1.9150001
0.97756195 0.76417619 1.9150001
0.98485714 0.76417619 1.9150001
0.99032867 0.76235241 1.9150001
0.97719717 0.77511907 1.9150002
0.98485714 0.77511907 1.9150001
0.99397624 0.77657807 1.9150002
1.0012715 0.77694291 1.9150001
0.96844292 0.78606194 1.9150001
0.97646773 0.78460294 1.9150002
0.98522198 0.78533238 1.9150002
0.99397629 0.78606188 1.9150001
1.0049191 0.786062 1.9150001
0.97665006 0.79518098 1.9150001
0.9848572 0.79518098 1.9150001
0.99397618 0.79518098 1.9150001
1.0049191 0.79518098 1.9150001
0.96753097 0.80430001 1.9150001
0.97573823 0.80430001 1.9150001
0.98485714 0.80430001 1.9150001
0.99397629 0.80430001 1.9150001
1.0049191 0.80430007 1.9150001
0.96114761 0.81889051 1.9150001
0.9976238 0.8134191 1.9150001
1.0049191 0.81524301 1.9150001
0.95658809 0.82709765 1.9150001
0.9976238 0.82983333 1.9150001
1.0049192 0.82618582 1.9150001
0.99488819 0.83621669 1.9150001
1.0049191 0.8353048 1.9150001
0.99443215 0.84396797 1.9150001
1.0049191 0.84442395 1.9150001
0.9976238 0.85171908 1.9150001
1.0049191 0.85536671 1.9150001
1.0012715 0.86448574 1.9150001
0.98816675 0.61783338 1.9250001
0.98633337 0.62516671 1.9250001
0.99183339 0.62883335 1.9250001
0.98511118 0.63616669 1.9250001
0.99183339 0.63249999 1.9250001
0.9869445 0.65327781 1.9250001
0.99550003 0.65816665 1.9250001
1.0028334 0.65816665 1.9250001
0.98450011 0.66916674 1.9250001
0.99549991 0.66549999 1.9250001
1.0043001 0.66549999 1.925
0.98358339 0.67375004 1.9250001
0.99550003 0.6746667 1.9250001
1.0052778 0.67405558 1.9250001
0.99550003 0.68016672 1.9250001
0.98816675 0.70950001 1.9250001
0.99550003 0.70950001 1.9250001
1.0065 0.70950001 1.9250001
0.97594446 0.71561116 1.9250001
0.98541677 0.71591669 1.9250001
0.99623334 0.71463335 1.925
1.0046667 0.71499997 1.9250001
1.0120001 0.71500003 1.9250001
1.0040556 0.72416663 1.9250001
0.98541677 0.73700005 1.9250001
0.99623334 0.73736674 1.925
1.0046667 0.73516667 1.9250001
1.0120001 0.73333335 1.9250001
0.99595833 0.74662501 1.9250001
1.0043001 0.74543339 1.925
1.0120001 0.74616671 1.9250001
0.98633343 0.75533336 1.9250001
0.99550003 0.75533336 1.9250001
1.0046667 0.75533336 1.9250001
1.0120001 0.75533336 1.9250001
0.98816675 0.76083332 1.9250001
0.99696666 0.76303327 1.925
1.0046667 0.76449996 1.9250001
1.0120001 0.76449996 1.9250001
0.98450011 0.7755 1.9250001
0.99770004 0.7755 1.925
1.0046667 0.77366668 1.9250001
1.0120001 0.7755 1.9250001
1.0120001 0.78283334 1.9250001
0.96983331 0.79566669 1.9250001
0.97472221 0.79505557 1.9250001
0.98358339 0.79474998 1.9250001
0.96983331 0.80300003 1.9250001
0.97533333 0.80116671 1.9250001
0.95883334 0.82683337 1.9250001
0.95883334 0.83050001 1.9250001
1.0120001 0.8671667 1.9250001
1.0120001 0.8708334 1.9250001
0.99750102 0.61767626 1.9360001
0.99750108 0.62505144 1.9360002
1.0011886 0.62505144 1.9360002
0.99750102 0.63980192 1.9360001
1.0011886 0.63242668 1.9360001
0.9864381 0.64717716 1.9360001
0.99012578 0.6434896 1.9360001
0.9864381 0.65086478 1.9360001
0.99750102 0.65639621 1.9360001
1.0048763 0.65639621 1.936
1.0122514 0.65639621 1.9360001
0.9864381 0.66930294 1.9360001
0.99196959 0.66745913 1.9360001
1.0164001 0.66561532 1.936
1.0177829 0.67483431 1.9360001
0.99504256 0.68405336 1.9360002
1.0054909 0.68528253 1.936
1.0164001 0.68451428 1.936
0.99750102 0.69511622 1.9360001
1.0057981 0.69603813 1.9360001
1.0159391 0.69511622 1.936
0.97906297 0.7098667 1.9360001
0.98275054 0.7098667 1.9360001
0.99381334 0.70740825 1.9360002
1.0067201 0.70617908 1.936
1.0159391 0.70617908 1.936
0.9864381 0.71724194 1.9360001
0.99012578 0.71539813 1.9360001
1.0085639 0.71355432 1.9360001
1.0177829 0.71355432 1.9360001
1.0159391 0.72646099 1.936
1.0177829 0.73199242 1.9360001
1.0159391 0.74305528 1.9360002
1.0031686 0.61747718 1.9470001
0.9994601 0.62118578 1.9470001
1.0068772 0.62118578 1.9470001
1.0142944 0.62489432 1.9470003
1.0235658 0.62489432 1.9470001
1.0180029 0.63231146 1.9470001
1.0235658 0.63231146 1.9470001
1.0050229 0.64714575 1.9470001
0.99822396 0.65209055 1.9470001
1.0050229 0.65270865 1.9470001
0.9976058 0.66568857 1.9470001
1.0235658 0.66198003 1.9470001
0.9957515 0.6860857 1.9470001
0.9976058 0.69535714 1.9470001
1.005641 0.69782954 1.9470001
1.0155305 0.69782954 1.9470001
1.0235658 0.69906574 1.9470001
0.9976058 0.70462859 1.9470001
1.0068772 0.70462859 1.9470001
0.98648006 0.71760863 1.9470001
0.99426806 0.71241665 1.9470001
1.0050229 0.71204579 1.9470001
1.0038636 0.537673 1.9580001
0.99764764 0.54451048 1.9580001
1.003242 0.54451048 1.9580001
0.99764758 0.55383426 1.9580001
1.0046405 0.55430049 1.9580001
1.0125657 0.55756384 1.9580001
1.0051067 0.56129336 1.9580001
1.0138088 0.56377977 1.9580001
1.0162952 0.57248193 1.9580001
1.0237542 0.60977715 1.9580001
1.0312134 0.60977715 1.9580001
1.0088363 0.61537147 1.9580001
1.0144305 0.61537141 1.9580001
1.0237542 0.61537141 1.9580001
1.0312134 0.61537147 1.9580001
1.0051067 0.62096572 1.9580001
1.0144305 0.62096572 1.9580001
1.0228219 0.62283051 1.9580001
1.0312134 0.62096572 1.9580001
1.0162952 0.6377486 1.9580001
1.0228219 0.63868099 1.9580001
1.0312134 0.63961333 1.9580001
1.0144305 0.64520764 1.9580001
1.0237542 0.64520764 1.9580001
1.0312134 0.64520764 1.9580001
1.0013772 0.65826094 1.9580001
1.0162952 0.65453142 1.9580001
1.0237544 0.65453142 1.9579999
1.0312134 0.65453142 1.9580001
0.99578285 0.66944951 1.9580001
1.0013772 0.66199052 1.9580001
1.0274838 0.66199052 1.9580001
1.0312134 0.66199052 1.9580001
0.99516129 0.67442226 1.9580001
0.99391812 0.68063813 1.9580001
1.0126286 0.53631812 1.9690001
1.0154414 0.54663193 1.9690001
1.0220048 0.54944479 1.9690001
1.0170041 0.55444545 1.9690002
1.023255 0.55569559 1.9690002
1.0262241 0.56397784 1.969
1.0351315 0.56632197 1.9690001
1.0163791 0.57757336 1.9690001
1.0257553 0.57516235 1.969
1.0351315 0.57382286 1.9690001
1.023255 0.58444923 1.9690002
1.0182544 0.59820098 1.9690001
1.0252196 0.59552205 1.969
1.0351315 0.59820098 1.9690001
1.0163791 0.60570198 1.969
1.0257554 0.60570192 1.9690001
1.0351316 0.60570198 1.969
1.0145038 0.61320287 1.9690002
1.0220048 0.61320287 1.9690001
1.0201715 0.52611434 1.9800001
1.0220572 0.53742862 1.9800001
1.0258286 0.54497141 1.9800001
1.0352572 0.55440003 1.9800001
1.0428001 0.55440003 1.9800001
1.0377715 0.56131428 1.9800001
1.0428001 0.56194288 1.9800001
1.0220572 0.58645719 1.9800001
1.0220572 0.59494287 1.9800001
1.0314858 0.59211433 1.9800001
1.0201715 0.60154289 1.9800001
1.0263543 0.52171433 1.9920001
1.0314134 0.52803808 1.9920001
1.0434287 0.52930284 1.9920001
1.0263543 0.5349943 1.9920001
1.0301486 0.53689146 1.9920001
1.0427963 0.5343619 1.9920001
1.0415314 0.54068571 1.9920001
1.0453258 0.58621716 1.9920001
1.0263543 0.59380573 1.9920001
1.0301486 0.59760004 1.9920001
1.0453258 0.59380573 1.9920003
1.0472229 0.60139436 1.9920001
1.0396523 0.45973617 2.003
1.0453752 0.50742668 2.003
1.0358372 0.51569301 2.003
1.0453752 0.51505709 2.003
1.0366002 0.5238322 2.003
1.0453752 0.52459526 2.003
1.0530057 0.52459526 2.003
1.0383806 0.53731275 2.003
1.0434676 0.53604096 2.003
1.0539596 0.53699476 2.003
1.0396523 0.54367143 2.003
1.0447394 0.54621494 2.003
1.0530057 0.54557908 2.003
1.0453752 0.55320954 2.003
1.0530057 0.55320954 2.003
1.0382049 0.42410955 2.0150001
1.0420429 0.42410955 2.0150001
1.0382049 0.43178573 2.0150001
1.0420429 0.43178573 2.0150001
1.045881 0.4471381 2.0150001
1.0474163 0.4555819 2.0150001
1.0484397 0.46504924 2.0150001
1.0548366 0.46376982 2.0150001
1.0612334 0.4624905 2.0150001
1.0478001 0.47400478 2.0150001
1.0554763 0.47400478 2.0150001
1.0612334 0.47400478 2.0150001
1.0478001 0.48360002 2.0150001
1.0554763 0.48551908 2.0150001
1.0612334 0.48551905 2.0150001
1.0478001 0.4951143 2.0150001
1.0554762 0.4951143 2.0150001
1.0612334 0.4951143 2.0150001
1.0454012 0.50422978 2.0150001
1.0558602 0.50394189 2.0150001
1.0612334 0.50470954 2.0150001
1.0433222 0.51366508 2.0150001
1.0573952 0.51430476 2.0150001
1.0612334 0.51430476 2.0150001
1.045881 0.521981 2.0150001
1.0573952 0.52006191 2.0150001
1.0612334 0.52006191 2.0150001
1.0521096 0.42663527 2.0270002
1.0469617 0.43307018 2.0270002
1.0521096 0.43435717 2.0270002
1.0482486 0.44594002 2.0270002
1.0544262 0.44516784 2.0270002
1.0585445 0.4549489 2.0270002
1.065623 0.45559239 2.0270002
1.0598315 0.46138385 2.0270002
1.065623 0.4652448 2.0270002
1.0472834 0.49516717 2.0270002
1.0540401 0.49227148 2.0270002
1.0699896 0.41750953 2.039
1.0738733 0.41750953 2.039
1.0641638 0.43498665 2.039
1.066753 0.44469619 2.0389998
1.0738733 0.44663811 2.039
1.0680476 0.45246381 2.039
1.0738733 0.45246381 2.039
1.0684735 0.33402002 2.0510001
1.0684735 0.37699336 2.0510001
1.0684735 0.38480672 2.0510001
1.0743334 0.38676 2.0510001
1.0801934 0.38676003 2.0510001
1.0743334 0.39457336 2.0510001
1.0801934 0.39457336 2.0510001
1.0684735 0.4082467 2.0510001
1.074724 0.40434003 2.0510001
1.0801934 0.40434003 2.0510001
1.0684735 0.41606 2.0510001
1.0739428 0.41527873 2.0510001
1.0801934 0.41410667 2.0510001
1.065348 0.42621738 2.0510001
1.0743334 0.42582667 2.0510001
1.0801934 0.42582667 2.0510001
1.0684735 0.4316867 2.0510001
1.0753101 0.43461668 2.0510001
1.0801934 0.43559337 2.0510001
1.0762867 0.4434067 2.0510001
1.0801934 0.4434067 2.0510001
1.0773445 0.33597434 2.0630002
1.0845487 0.35562193 2.0630002
1.0786544 0.36741051 2.0630002
1.0845487 0.36741051 2.0630002
1.077672 0.37526953 2.0630002
1.0845487 0.37526953 2.063
1.0786544 0.38312861 2.0630002
1.0845487 0.38312861 2.0630002
1.0814973 0.3222743 2.0760002
1.0874286 0.34600005 2.0760002
1.0933601 0.34797716 2.0760002
1.0894058 0.35786289 2.0760002
1.0933601 0.35786289 2.0760002
1.0854515 0.36708954 2.0760002
1.0933601 0.36577144 2.0760002
1.0814973 0.37368003 2.0760002
1.0877485 0.32413715 2.0880001
1.0951347 0.32527348 2.0880001
1.0964984 0.3336823 2.0880001
1.0976915 0.34203428 2.0880001
1.0917257 0.35595429 2.0880001
1.0877485 0.36788571 2.0880001
1.0917257 0.36390856 2.0880001
1.1045258 0.27613145 2.1010001
1.1045258 0.31615049 2.1010001
1.1045258 0.32215336 2.1010001
1.1093467 0.26576 2.1140001
1.1133733 0.26576 2.1140001
1.1093467 0.27180001 2.1140001
1.1133733 0.27180001 2.1140001
1.1093467 0.28589332 2.1140001
1.1133733 0.28589332 2.1140001
1.1077361 0.29676533 2.1140001
1.1133733 0.29595998 2.1140001
1.10532 0.3060267 2.1140001
1.1133733 0.3060267 2.1140001
1.1066623 0.31340888 2.1140001
1.1133733 0.31206667 2.1140001
1.1161686 0.26131716 2.1270001
1.1202201 0.26131716 2.1270001
