# .PCD v0.7 - Point Cloud Data file format
VERSION 0.7
FIELDS x y z
SIZE 4 4 4
TYPE F F F
COUNT 1 1 1
WIDTH 1460
HEIGHT 1
VIEWPOINT 0 0 0 1 0 0 0
POINTS 1460
DATA ascii
0.2348236 0.045923278 1.2954443
0.24191999 0.046902858 1.296
0.25623286 0.046072286 1.2934999
0.26490855 0.042766429 1.29225
0.27558896 0.04514109 1.291
0.28552455 0.041228335 1.29225
0.29582343 0.041066095 1.291
0.30516779 0.04401695 1.2910001
0.31383595 0.045185 1.291
0.3467257 0.040574286 1.291
0.35583106 0.043537579 1.2928182
0.36346614 0.043789964 1.2910001
-0.69243431 0.053074285 1.296
-0.68617249 0.051739205 1.2934999
-0.66157711 0.050605714 1.296
-0.65664005 0.050605714 1.296
-0.64182854 0.058011428 1.296
-0.63565844 0.056979239 1.295
0.19810286 0.056159999 1.296
0.20454708 0.054213036 1.2938124
0.21428019 0.05527775 1.2950909
0.22344272 0.053144287 1.2926666
0.23644298 0.053876117 1.2925385
0.24576607 0.054981753 1.2917693
0.25567445 0.053369876 1.2923636
0.26926571 0.052869525 1.291
0.30615145 0.050410476 1.291
0.31762698 0.051230159 1.291
-0.64141709 0.061302859 1.296
-0.63418514 0.061276954 1.2919999
0.20369111 0.061886031 1.291
0.22455575 0.06337636 1.2910001
0.23565872 0.062705718 1.291
0.24344571 0.06147619 1.291
0.5176295 0.089755237 1.291
0.49303904 0.092214279 1.291
0.52363211 0.094996504 1.2926668
0.53577459 0.098029286 1.29475
0.54517925 0.098401226 1.2938572
0.52377713 0.10205048 1.291
0.5373019 0.10205048 1.291
0.54643953 0.10550805 1.2932222
0.55419433 0.10837028 1.296
0.11658057 0.11855352 1.2939999
0.54628849 0.11629606 1.2931429
0.55296004 0.11355428 1.296
0.11593802 0.12580875 1.2950624
0.12541142 0.12541142 1.2910001
0.13401808 0.12479668 1.291
0.14549364 0.12336222 1.291
0.53976095 0.12295239 1.291
0.54283476 0.12479667 1.291
-0.064360514 0.13587795 1.2946665
-0.056248162 0.13665307 1.2960001
0.10985143 0.13700572 1.296
0.11568534 0.13537619 1.29225
0.12500159 0.13155904 1.291
0.13155904 0.13155904 1.291
0.54728234 0.13305601 1.296
0.5538308 0.13531315 1.2939999
0.57910568 0.13524762 1.291
0.58233637 0.13577384 1.292111
-0.074591123 0.14508383 1.2910001
-0.064055473 0.14536357 1.2935001
-0.054227021 0.14543204 1.294125
-0.046373878 0.14723265 1.2960001
0.075291425 0.14688 1.296
0.10935771 0.14539886 1.296
0.11557522 0.14467396 1.2910001
0.58231241 0.14157777 1.2926667
-0.0725419 0.15246095 1.291
-0.063935243 0.15246095 1.291
-0.053866152 0.15471315 1.2913336
-0.045649998 0.15669283 1.2954998
-0.037439998 0.1584 1.296
0.097100817 0.15772448 1.2952856
0.10598857 0.1554334 1.2929231
0.11352602 0.15287079 1.291
0.57787621 0.15860857 1.291
0.58279431 0.15860857 1.291
0.5949257 0.15922286 1.296
-0.051815648 0.16352667 1.291
-0.044315539 0.16495174 1.2925626
-0.034760579 0.16585098 1.2929231
-0.028333809 0.16753668 1.2934999
0.087462857 0.16630477 1.2935001
0.094380945 0.16332634 1.2926668
0.10328 0.16229714 1.291
0.57787621 0.16475619 1.291
0.58576274 0.16472523 1.2926667
0.59373474 0.16523595 1.29475
-0.043853015 0.17254318 1.291
-0.033764612 0.17393035 1.2910001
-0.028279046 0.17336287 1.291
0.076525718 0.17650285 1.296
0.08474981 0.17468695 1.2934999
0.092214279 0.17090382 1.291
0.57726145 0.17459239 1.291
0.58555937 0.17545083 1.2952306
0.59685189 0.17184953 1.2934999
0.60222071 0.17287105 1.291
-0.03180898 0.18470694 1.2917143
-0.028333809 0.18479285 1.2934999
0.071666852 0.18643942 1.293
0.084302142 0.18522309 1.2922499
0.57716805 0.18436974 1.2915556
0.58499318 0.1847306 1.2931429
0.59245712 0.18637714 1.296
0.061066348 0.19303523 1.291
0.57828599 0.19139586 1.291
0.5869559 0.19360371 1.2915001
0.59298736 0.19656634 1.2926666
0.61402416 0.31500399 1.291
0.60467976 0.32582378 1.291
0.40821832 -0.016169526 1.3060001
-0.70275247 -0.0012438096 1.3060001
-0.70125991 0.0032339047 1.3060001
-0.69628465 0.0037314289 1.3060001
0.38467273 0.00786635 1.3043336
0.2699067 0.018657144 1.3060001
0.27635404 0.017570613 1.3045715
0.28180432 0.017377619 1.3035002
0.29975814 0.018657144 1.3060001
0.30784288 0.018035239 1.3060001
0.31621471 0.015786814 1.306
0.32214668 0.018657144 1.3060001
0.37637681 0.016418288 1.306
0.38356817 0.0153218 1.3043333
0.39487451 0.015141144 1.3030002
-0.71618557 0.025622478 1.3060001
-0.70441085 0.027778415 1.3060001
-0.69578713 0.027612573 1.3060001
0.25871241 0.02860762 1.3060001
0.26758066 0.026109951 1.3054445
0.2766259 0.023609437 1.3046365
0.28556642 0.025397006 1.3052857
0.29553804 0.024849601 1.3047501
0.30517206 0.024427459 1.3043333
0.31540096 0.022733863 1.3021111
-0.70266753 0.03253448 1.3040001
-0.69274706 0.032709207 1.3043336
-0.68776459 0.036510862 1.3040001
-0.6716572 0.036070481 1.3060001
-0.66333508 0.034757625 1.3035001
-0.65382141 0.035827067 1.30475
0.26547676 0.034357008 1.3017147
0.28403854 0.034085318 1.301417
0.31843525 0.030976191 1.3010001
-0.68524098 0.04480318 1.302667
-0.67263454 0.044989716 1.3050001
-0.66660768 0.045844767 1.3010001
-0.6534254 0.044477541 1.3036472
-0.59400791 0.047442455 1.3060001
-0.70006198 0.050800957 1.3010001
-0.69433469 0.052524447 1.3026668
-0.68406481 0.054329049 1.3049285
-0.67413002 0.052207459 1.3051668
-0.66418445 0.054703221 1.3053751
-0.65348232 0.05417588 1.3026669
-0.64554155 0.053874187 1.3035002
-0.6368705 0.054518096 1.3010001
-0.6107105 0.055971432 1.3060001
-0.6057353 0.054905314 1.3060001
-0.59426731 0.050866038 1.3026668
0.47441748 0.055104926 1.3051667
0.48508573 0.05721524 1.3060001
0.50496161 0.057376385 1.3040001
0.51518595 0.057961524 1.3060001
0.52240002 0.058459051 1.3060001
-0.65300006 0.060946673 1.3060001
-0.64802194 0.060713336 1.3010001
0.48509148 0.060791116 1.3026668
0.50797737 0.062979214 1.3051668
0.51607084 0.063073762 1.3043333
0.5233376 0.064077735 1.304
0.51792192 0.071864769 1.3010001
0.52517456 0.074188933 1.3041819
0.53110671 0.073384769 1.3060001
0.52497017 0.085095339 1.3025001
0.53266144 0.085200958 1.3060001
0.11816191 0.095773339 1.3060001
0.12263963 0.094778299 1.3060001
0.1341951 0.095170341 1.3056153
0.52907336 0.091689527 1.3010001
0.53555232 0.093352094 1.3035002
0.54495472 0.093485996 1.3038572
0.55137622 0.095406674 1.3010001
0.1169181 0.10821144 1.3060001
0.12189335 0.10821144 1.3060001
0.13299532 0.10383009 1.3030833
0.1400124 0.10036287 1.3010001
0.55628383 0.10431211 1.3017145
0.56178737 0.102407 1.3060001
-0.054727618 0.11443048 1.306
-0.046518482 0.11443049 1.306
-0.036070481 0.11816191 1.3060001
0.097017154 0.11567429 1.3060001
0.1056117 0.11509948 1.3046364
0.11385641 0.11367532 1.3035002
0.12394299 0.11400267 1.3040001
0.13010001 0.1115143 1.3010001
0.55633241 0.11605748 1.3010001
0.56178737 0.11484509 1.3060001
-0.074260257 0.12365697 1.3010004
-0.064430483 0.12390476 1.3010004
-0.054555301 0.12399197 1.3019378
-0.044777147 0.12438097 1.306
-0.037314288 0.12438095 1.3060001
0.08831048 0.12811239 1.3060001
0.095773339 0.12562478 1.3060001
0.10465919 0.1247113 1.3038572
0.11077087 0.12316135 1.3010001
0.54889816 0.12390478 1.3010001
0.55472374 0.1243599 1.3043333
0.56095815 0.12811239 1.3060001
0.57650578 0.12749048 1.3060001
0.58459049 0.12811239 1.3060001
0.60200381 0.12811239 1.3060001
-0.070625715 0.13010001 1.3010001
-0.061539371 0.13092604 1.3010001
-0.053729609 0.13280338 1.3010002
-0.044667028 0.13400763 1.3028752
-0.036899686 0.13446964 1.3060001
0.075872384 0.13681906 1.3060001
0.081676833 0.13723367 1.3060001
0.098260961 0.13060001 1.3060001
0.10437644 0.13420287 1.30475
0.11027525 0.13340414 1.3010001
0.54889816 0.13010001 1.3010001
0.55580443 0.13150573 1.3026668
0.56552738 0.13350935 1.3025628
0.57409203 0.13299114 1.3010002
0.58483052 0.13092606 1.3010001
0.59523702 0.1329878 1.3028183
0.60147101 0.13220859 1.3035002
-0.052040003 0.1400124 1.3010001
-0.043569382 0.14348501 1.301385
-0.034985721 0.14511374 1.3046843
-0.027612573 0.14602324 1.3060001
0.067722149 0.1478693 1.3047502
0.074336447 0.14511332 1.3023337
0.081314765 0.14214002 1.3035002
0.10534788 0.14351569 1.3041818
0.56624484 0.1400124 1.3010001
0.57120097 0.1400124 1.3010001
-0.04254064 0.15405494 1.3010001
-0.033825312 0.15514097 1.3017147
-0.026715318 0.15532345 1.30475
0.065469615 0.15434548 1.306
0.073798969 0.15480107 1.3045
0.087255873 0.15838669 1.3026668
0.094291441 0.15714446 1.3026668
0.10313739 0.15222025 1.3047502
-0.033454288 0.16231525 1.3010001
0.084216341 0.1643513 1.3031431
0.59846002 0.16974954 1.3010001
0.59512466 0.17605828 1.3018335
0.60241842 0.17371874 1.3060001
0.59544885 0.18277374 1.3020002
0.64058769 0.28250289 1.3010001
0.39981338 -0.01128 1.3160001
0.40529516 -0.013469525 1.3121111
0.41078001 -0.011237144 1.3110001
-0.71231121 -0.00376 1.3160001
-0.70451653 -0.0037533338 1.313
-0.69497043 -0.0044962862 1.3115
0.31834668 -0.0012533334 1.3160001
0.40514636 -0.0075088893 1.3143333
0.41078001 -0.0087400004 1.3110001
-0.71231121 0.0054311114 1.3160001
-0.70439625 0.0069610886 1.3117143
-0.69397086 0.0051643453 1.3138126
-0.68432009 0.0087733343 1.3160001
-0.67251474 0.0077592386 1.314
-0.66549957 0.0062547624 1.3135002
-0.58433151 0.0037457147 1.3110001
0.27585012 0.008253905 1.3130001
0.28092861 0.0087400004 1.3110001
0.316771 0.0053451951 1.3137273
0.32428062 0.0060253679 1.3137273
-0.72192007 0.016293334 1.3160001
-0.71404189 0.015577146 1.3160001
-0.70269835 0.0150025 1.3128752
-0.69434673 0.015040003 1.3160001
-0.68472892 0.01566151 1.3155833
-0.67654932 0.014288001 1.3160001
-0.6630134 0.012533333 1.3160001
0.27460152 0.013253905 1.313
0.28509051 0.015815238 1.311
0.31464002 0.01186143 1.3110001
-0.72192001 0.021306667 1.3160001
-0.71317685 0.024701979 1.3121539
-0.70365852 0.023737578 1.3119091
-0.69336325 0.024287552 1.3127859
-0.68487495 0.025122285 1.3146667
-0.67554665 0.025961906 1.3160001
-0.66250521 0.028281525 1.3140001
-0.65398937 0.027824 1.3160001
-0.64421338 0.027573334 1.3160001
-0.63483882 0.02817262 1.3147501
-0.62477171 0.027691156 1.3131429
-0.61478281 0.028034966 1.3124286
-0.6078667 0.028826667 1.3160001
-0.69096065 0.033800319 1.3143334
-0.68467122 0.034724694 1.315643
-0.67500049 0.03524638 1.3125
-0.66498917 0.031713717 1.3110001
-0.65173978 0.034745477 1.3147501
-0.64376771 0.035193756 1.3138125
-0.63468224 0.034014508 1.3152308
-0.62416005 0.031333335 1.3160001
-0.61356366 0.034523636 1.3160001
-0.60444349 0.037268214 1.3153751
-0.59382939 0.037850671 1.3160001
-0.58280003 0.035845332 1.3160001
-0.68444163 0.044767465 1.3118333
-0.67797434 0.042451434 1.3110001
-0.65049469 0.044484906 1.3131429
-0.64415085 0.044968519 1.314
-0.63443738 0.042864002 1.3160001
-0.62290674 0.048880003 1.3160001
-0.61366665 0.045333527 1.3150001
-0.60480219 0.04480524 1.3120714
-0.59442288 0.042548575 1.314
-0.58781338 0.041360006 1.3160001
0.4755863 0.045680601 1.3141251
0.48477542 0.046485629 1.3128182
0.49152097 0.047861908 1.3110001
0.50816858 0.04869429 1.3110001
0.51574671 0.048253335 1.3160001
0.52305776 0.048044447 1.3160001
-0.68219846 0.057580322 1.3143334
-0.67552203 0.056747939 1.3143334
-0.64134955 0.052023813 1.3110001
-0.62109673 0.053161908 1.3135
-0.61552435 0.053359728 1.3117143
-0.6055572 0.051191431 1.3110001
0.47820288 0.051191431 1.3110001
0.48444575 0.052440003 1.311
0.49276957 0.054520953 1.311
0.50816858 0.052440003 1.3110001
0.51442593 0.053497061 1.3119091
0.52440006 0.054312859 1.311
0.53040147 0.055034764 1.3135002
-0.67805338 0.06141334 1.3160001
0.4944343 0.062428579 1.3110001
0.53449875 0.066348895 1.3143334
0.54144001 0.068933338 1.3160001
0.55715299 0.065422863 1.3126668
0.56060863 0.064925715 1.3110001
0.13661334 0.078960001 1.3160001
0.1448528 0.075657226 1.3130833
0.16293843 0.072923817 1.3126668
0.53492373 0.075806133 1.311
0.54296166 0.074832648 1.3155456
0.5502134 0.07394667 1.3160001
0.56726766 0.074498102 1.3110001
-0.038853336 0.088986672 1.3160001
0.11792775 0.085715525 1.3152858
0.12486883 0.085214481 1.3120002
0.1350612 0.084409125 1.3130833
0.1437481 0.083748095 1.3125
0.53730196 0.084486671 1.3110001
0.54323775 0.085783549 1.3123636
0.55188447 0.087315559 1.3160001
-0.055053513 0.09509173 1.3138126
-0.045120005 0.095253333 1.3160001
-0.03634667 0.096050911 1.3160001
-0.028826667 0.099013336 1.3160001
0.097668335 0.097665951 1.3147501
0.10584255 0.095847629 1.3126667
0.11466219 0.095426582 1.3115
0.1256517 0.094777919 1.311
0.13526192 0.091978103 1.3110001
0.56776005 0.099013336 1.3160001
0.57277334 0.097760007 1.3160001
-0.05306429 0.10175858 1.3110001
-0.044157863 0.10414406 1.31225
-0.035084106 0.10525471 1.3156875
-0.027573334 0.10569778 1.3160001
0.095527224 0.10481457 1.3124286
0.10497823 0.10498179 1.3122501
0.11451185 0.10434491 1.311
0.12521389 0.10434491 1.311
0.56685144 0.10612857 1.311
0.57320946 0.10544036 1.3141251
-0.042035248 0.11486858 1.311
-0.034926925 0.11479156 1.3130001
-0.025416939 0.11581152 1.315643
0.087565877 0.11633541 1.3135
0.094559535 0.11472048 1.3113573
0.10213315 0.11312058 1.3110001
0.5662272 0.11486857 1.3110001
0.57323462 0.11587934 1.3148462
0.58315808 0.11763429 1.3160001
-0.032462858 0.12485716 1.311
-0.025039287 0.12521429 1.3147501
0.078024454 0.12558763 1.3143334
0.085290633 0.12490396 1.3125384
0.094421312 0.12441559 1.3123636
0.10238287 0.12111144 1.3110001
0.55811143 0.12360859 1.3110001
0.5647704 0.12485715 1.311
0.57388461 0.1241696 1.3116667
0.58477718 0.12370098 1.312
0.59465778 0.12626287 1.3126667
0.60222578 0.1260211 1.3138572
-0.032284491 0.13466735 1.311
-0.025004165 0.13503739 1.3128752
0.077827632 0.13276477 1.3110001
0.085649528 0.13428953 1.3121539
0.094786488 0.13530305 1.313
-0.023737578 0.14414018 1.3119091
0.06533131 0.1453518 1.312875
0.095847629 0.14210351 1.3126668
0.10270973 0.14719506 1.312
0.63419944 0.25493014 1.3153751
0.64131731 0.25483048 1.3137778
0.61794323 0.26745749 1.3143334
0.6361289 0.26182455 1.3122501
0.64218193 0.2634486 1.3110001
-0.73119432 -0.011365715 1.3260001
-0.69360971 -0.013570357 1.3253751
-0.68699431 -0.016417144 1.3260001
-0.74192858 -0.0037885716 1.3260001
-0.73508006 -0.0043714293 1.3260001
-0.72538519 -0.004798857 1.3260001
-0.7184369 -0.0037822223 1.3226668
-0.70579147 -0.003774286 1.3210001
-0.6942386 -0.0049465937 1.324077
-0.67338347 -0.0035079366 1.3260001
-0.66805148 -0.0012628572 1.3260001
-0.59306616 -0.0022645718 1.3210001
-0.58627242 -0.0012580954 1.3210001
-0.74129719 0.0012628572 1.3260001
-0.73414093 0.0046304767 1.3260001
-0.72431993 0.0050371434 1.3226668
-0.71837246 0.0050323815 1.3210001
-0.6919769 0.0031464288 1.3222501
-0.68567741 0.0065742861 1.3221112
-0.67331082 0.0033172294 1.3214546
-0.66444904 0.0059381644 1.3227857
-0.65491778 0.0083348574 1.3260001
-0.64195246 0.00715619 1.3260001
-0.63370168 0.0053040008 1.3260001
-0.62655753 0.0045102043 1.3260001
-0.60503578 0.0075652385 1.3235002
-0.59462792 0.0056757145 1.3235002
-0.5854606 0.0068194284 1.3260001
-0.57662058 0.006314286 1.3260001
-0.73321879 0.0152966 1.323143
-0.72628051 0.013479592 1.3210001
-0.71837246 0.011322858 1.3210001
-0.68356514 0.013839047 1.3210001
-0.67366338 0.015392968 1.3213847
-0.66409463 0.0154566 1.321
-0.65427566 0.01488325 1.3218824
-0.64437973 0.015357334 1.3220001
-0.63431001 0.014835821 1.3229444
-0.62463051 0.016211906 1.3242143
-0.61501151 0.017680002 1.3260001
-0.60743433 0.016697781 1.3260001
-0.59733146 0.01389143 1.3260001
-0.58578539 0.01497388 1.3260001
-0.5755654 0.015022346 1.3233079
-0.56662863 0.017508997 1.3237778
0.4537867 0.016838096 1.3260001
0.46548921 0.018437717 1.3260001
0.47104573 0.018942859 1.3260001
0.50576609 0.018919049 1.3243334
-0.72843719 0.02138762 1.3210001
-0.68377483 0.026420001 1.3210001
-0.67399591 0.024132555 1.3210001
-0.66507077 0.023249609 1.3228183
-0.6547128 0.024155432 1.3210001
-0.6437254 0.023065083 1.3210001
-0.63408005 0.023400575 1.3210001
-0.62409776 0.022533972 1.3226668
-0.6144498 0.024162859 1.3228183
-0.60588521 0.025243454 1.3253751
-0.59606862 0.025257144 1.3260001
-0.58598882 0.025249323 1.3256429
-0.57617468 0.024668667 1.3215001
-0.56790417 0.022394096 1.3210001
0.4562166 0.023196464 1.3217144
0.46527705 0.024645852 1.3224286
0.47559205 0.026014859 1.3260001
0.50640577 0.021468572 1.3260001
-0.63318145 0.037203677 1.3210001
-0.62401521 0.036484767 1.3210001
-0.61185378 0.034807306 1.3210001
-0.60430509 0.033129845 1.3210001
-0.59424037 0.034178257 1.3210001
-0.58627242 0.033968575 1.3210001
-0.57914323 0.032291114 1.3210001
0.46549526 0.031452384 1.3210001
0.47586757 0.035474803 1.3260001
0.48367432 0.039148573 1.3260001
-0.64162862 0.047807623 1.3210001
-0.63282198 0.044872068 1.3210001
-0.62419498 0.044752244 1.321
0.16460769 0.046128575 1.3256155
0.47556001 0.041517146 1.3210001
0.48620006 0.04167429 1.3260001
0.49125144 0.04167429 1.3260001
0.51650864 0.043779049 1.3260001
0.52640086 0.04451048 1.3245716
0.53393811 0.0466654 1.3243334
-0.67391968 0.059130479 1.3210001
-0.64162862 0.051581908 1.3210001
0.12481809 0.057457011 1.3238573
0.13447103 0.056883812 1.323143
0.14545043 0.055154659 1.3229444
0.15558878 0.055762254 1.3220717
0.16396306 0.053068683 1.3232224
0.53730249 0.055495877 1.3243335
0.54176575 0.056828573 1.3260001
0.56343293 0.052937623 1.3235002
-0.6851846 0.062750287 1.3230002
-0.67498809 0.06308452 1.3247502
-0.025509717 0.06592115 1.3260001
0.11887068 0.067384198 1.325
0.1259242 0.065688133 1.3213333
0.13565728 0.065688126 1.3213333
0.14473969 0.064188786 1.3215556
0.15570103 0.065226384 1.3215882
0.55944574 0.063142866 1.3260001
-0.045353934 0.075589292 1.322875
-0.035359997 0.075771436 1.3260001
-0.025257146 0.075771429 1.3260001
-0.018942859 0.075771436 1.3260001
0.11718422 0.075603575 1.3230835
0.12530471 0.075865246 1.3213571
0.13485144 0.074860699 1.3233335
0.14418405 0.072410718 1.3222501
0.15474571 0.071711436 1.3210001
0.54934293 0.079560012 1.3260001
0.55334431 0.075630963 1.3235002
-0.052840002 0.081776194 1.3210001
-0.044662379 0.083348811 1.3210001
-0.035027105 0.085423939 1.3230001
-0.025238395 0.085810892 1.3250625
-0.016646756 0.086218707 1.3260001
0.10966144 0.088230953 1.3235002
0.11412608 0.085751079 1.3241251
0.12706763 0.081776194 1.3210001
0.13713239 0.081776194 1.3210001
0.54852957 0.083034292 1.3210001
0.55208623 0.083189048 1.3235002
-0.03245886 0.093853906 1.3210001
-0.024910288 0.095363632 1.3209999
-0.016399287 0.095885478 1.3247502
0.087137148 0.099765718 1.3260001
0.095674925 0.095674917 1.3237779
0.10287302 0.093634285 1.3226668
0.11322857 0.09184096 1.3210001
0.57746571 0.098383054 1.3210001
0.58634955 0.095589466 1.3256429
0.59228003 0.098502859 1.3260001
-0.023652192 0.10542838 1.3210001
-0.016383016 0.10587841 1.3235002
0.08664719 0.10730607 1.3255455
0.092014767 0.10714524 1.3235002
0.57746571 0.10190573 1.3210001
0.58460903 0.10609796 1.3217144
0.59445196 0.10719654 1.324182
0.60364574 0.10860572 1.3260001
-0.37539637 0.11506732 1.321
-0.36519077 0.11425792 1.3210001
-0.3543635 0.11364795 1.3210001
-0.34849238 0.11448667 1.3210001
-0.022645716 0.11197048 1.3210001
-0.016377857 0.11592612 1.3230835
0.076269805 0.11846354 1.3252858
0.084296003 0.11533467 1.325
0.57998192 0.11322857 1.3210001
0.58543366 0.11364795 1.3210001
0.59542406 0.11575315 1.3240001
0.60581064 0.11672407 1.3260001
0.61248577 0.11618286 1.3260001
0.075112395 0.12547033 1.3218335
0.081776194 0.12455143 1.3210001
0.59507912 0.12203524 1.3210001
0.60600919 0.12281562 1.3240001
0.61017627 0.12329334 1.3210001
0.63785434 0.25790954 1.3210001
0.64414483 0.25665146 1.3210001
0.65169334 0.25665146 1.3210001
0.64037049 0.26042575 1.3210001
0.65361881 0.26357636 1.3260001
-0.73543626 -0.054712381 1.3360001
-0.74434298 -0.04198857 1.3360001
-0.68135387 -0.047628574 1.3335001
-0.67817622 -0.044366669 1.3310001
-0.743334 -0.03850032 1.3326668
-0.73775429 -0.038028575 1.3310001
-0.72144002 -0.033081904 1.3360001
-0.7163505 -0.032445714 1.3360001
-0.70871621 -0.031809524 1.3360001
-0.73161912 -0.022902858 1.3360001
-0.7249102 -0.02417524 1.3360003
-0.71482366 -0.025362799 1.3360003
-0.70478606 -0.024552822 1.3352311
-0.69853717 -0.02417524 1.3360001
-0.68072385 -0.029264765 1.3360001
-0.67817909 -0.029264765 1.3360001
-0.73268074 -0.014353606 1.3352859
-0.72508723 -0.015265892 1.3356878
-0.71380568 -0.015268573 1.3360003
-0.70522195 -0.016062252 1.3346366
-0.69847792 -0.015229286 1.3322501
-0.59165716 -0.019085715 1.3360001
-0.56112003 -0.012723811 1.3360001
-0.55857527 -0.012723811 1.3360001
-0.74472618 -0.0082395235 1.3310001
-0.73395139 -0.0071831751 1.3310001
-0.72639406 -0.0076116668 1.3322501
-0.71581048 -0.0088999998 1.335
-0.69407398 -0.0047672619 1.3353752
-0.68524539 -0.0040993658 1.3354447
-0.67057055 -0.0038028574 1.3310001
-0.62346667 -0.0012723811 1.3360001
-0.60438097 -0.0012723811 1.3360001
-0.59420192 -0.0038171432 1.3360001
-0.58427393 -0.0027204086 1.3324288
-0.57486224 -0.00240127 1.3337779
-0.56366479 -0.0055136508 1.3360001
-0.55857527 -0.0076342858 1.3360001
-0.73648667 0.0063380958 1.3310001
-0.69212008 0.0012676191 1.3310001
-0.68704957 0.0025352384 1.3310001
-0.65028858 0.0076057147 1.3310001
-0.64690828 0.0046479371 1.3310001
-0.62374628 0.00495697 1.3319093
-0.61650264 0.0049954918 1.3343335
-0.60591412 0.0060643386 1.3337779
-0.59451342 0.0031690476 1.3310001
-0.58640063 0.0017746668 1.3310001
-0.57394981 0.0040845503 1.3310002
-0.56759065 0.0058871 1.3332729
0.41676995 0.0041677551 1.3324287
0.42545006 0.0076176189 1.3335
0.43624148 0.0079369051 1.3335003
0.44151622 0.0038171432 1.3360001
0.45932955 0.0089066671 1.3360001
0.4644191 0.0089066671 1.3360001
-0.62366861 0.012676192 1.3310001
-0.61733049 0.012676192 1.3310002
-0.60541493 0.013436763 1.3310002
-0.59679502 0.015972 1.3310002
-0.58944291 0.016479049 1.3310001
-0.57223076 0.012053096 1.3322501
-0.565723 0.012875646 1.333143
0.42592007 0.011408572 1.3310001
0.43606097 0.011408572 1.3310001
0.45659637 0.013943811 1.3310001
0.46353659 0.014207808 1.3320001
0.47586423 0.017493144 1.3310001
0.48390722 0.018053524 1.335
0.49783763 0.019050002 1.3335001
0.50324482 0.017746668 1.3310001
0.51658666 0.019085715 1.3360001
-0.58944291 0.021549525 1.3310001
0.47662479 0.021549525 1.3310001
0.48566997 0.025085496 1.3325387
0.49532536 0.025687398 1.333308
0.50437945 0.026148196 1.3326668
0.5133999 0.025954152 1.3338573
0.14324096 0.036760956 1.3310001
0.16605811 0.038028572 1.3310002
0.47662479 0.034225717 1.3310001
0.48549807 0.035147622 1.3310002
0.49259678 0.034986287 1.3310002
0.50513625 0.035336006 1.3346668
0.5145005 0.035523094 1.33225
0.52462369 0.037054006 1.3325002
0.53462255 0.035886224 1.3348464
0.54553342 0.036580954 1.3360002
0.55094099 0.039443813 1.3360001
-0.035626668 0.047078099 1.3360003
-0.029264765 0.048350479 1.3360001
0.11705905 0.04962286 1.3360001
0.12494781 0.048604958 1.3360001
0.13696928 0.046717145 1.3347502
0.14155079 0.046901911 1.3310001
0.16479048 0.044366673 1.3310001
0.17619906 0.041831434 1.3310001
0.51211816 0.041831434 1.3310001
0.52352673 0.041831434 1.3310001
0.53569585 0.042338483 1.3310001
0.54515052 0.047305718 1.3335003
-0.035630539 0.055601083 1.3330002
-0.02595075 0.056253754 1.3338573
-0.019085715 0.059801906 1.3360001
0.11833143 0.055984765 1.3360001
0.12349629 0.054338627 1.3337779
0.13449025 0.052021191 1.3322501
0.54254097 0.051972382 1.3310001
0.56698793 0.057767212 1.3310002
0.57394314 0.055297386 1.3347501
-0.6908524 0.064648576 1.3310001
-0.67500716 0.067817628 1.3310001
-0.041831434 0.065916196 1.3310001
-0.036760956 0.065916188 1.3310002
-0.021549525 0.062113333 1.3310001
-0.017468452 0.067023456 1.3341252
0.11634286 0.065150477 1.3326668
0.12042382 0.062113333 1.3310001
0.56662571 0.065735109 1.3310002
0.57384384 0.068708576 1.3360001
-0.015231072 0.076162502 1.3328751
0.10801747 0.077515237 1.3343334
0.11165525 0.076125003 1.3322502
0.55394953 0.079860002 1.3310001
0.56544894 0.073885918 1.3330001
0.57352579 0.075070485 1.3360002
-0.012053096 0.084374055 1.3322501
-0.0089066671 0.086521909 1.3360001
0.10801747 0.085146345 1.3343334
0.11112794 0.083240323 1.3310001
0.55753005 0.081277624 1.3335001
0.56493717 0.086521909 1.3360001
0.5738439 0.080160007 1.3360001
-0.011408572 0.093803823 1.3310001
-0.0071990471 0.093613029 1.3343335
0.08485049 0.095657393 1.3347502
0.091861755 0.094401754 1.3335003
0.59704864 0.097606674 1.3310001
0.60565335 0.097973339 1.3360001
0.61328763 0.097973339 1.3360001
-0.011408572 0.10394477 1.3310001
0.083700366 0.10336155 1.3316252
0.090000957 0.10014191 1.3310001
0.59856975 0.10217009 1.3310001
0.60561752 0.10326134 1.3320001
0.61317444 0.1047649 1.3345717
0.60972482 0.11155048 1.3310001
0.61352766 0.11155048 1.3310001
0.029264765 0.19212952 1.3360001
0.62493622 0.22183335 1.3310001
-0.65425718 -0.070557147 1.3470001
-0.72289014 -0.062860005 1.3470001
-0.71620083 -0.063593067 1.3470001
-0.70758736 -0.063226536 1.3470001
-0.68376285 -0.061577152 1.3470001
-0.66067147 -0.062860005 1.3470001
-0.65390724 -0.063792989 1.3470001
-0.75047147 -0.053880002 1.3470001
-0.74347323 -0.054433439 1.3431112
-0.73529738 -0.053069331 1.3460001
-0.72430122 -0.05362343 1.3470001
-0.71679646 -0.056125004 1.3470001
-0.70557147 -0.054735243 1.3470001
-0.69461787 -0.053189233 1.3470001
-0.68889433 -0.052597146 1.3470001
-0.62372524 -0.052597146 1.3470001
-0.61833721 -0.055162862 1.3470001
-0.75047147 -0.047465719 1.3470001
-0.74325597 -0.045992237 1.3443078
-0.73534662 -0.045536462 1.3441429
-0.72716391 -0.045047551 1.3459288
-0.70236433 -0.045541435 1.3470001
-0.69487923 -0.044872224 1.3461667
-0.68378121 -0.045411665 1.34325
-0.62680405 -0.045156576 1.3470001
-0.74001712 -0.039620955 1.342
-0.73441446 -0.036275133 1.3442223
-0.72685653 -0.036687937 1.3436667
-0.71628302 -0.035072193 1.3440001
-0.70425808 -0.034566395 1.3441429
-0.69528383 -0.03578667 1.3419998
-0.68505353 -0.035539951 1.3433887
-0.67866856 -0.037064761 1.342
-0.61192292 -0.034637146 1.3470001
-0.6067915 -0.03335429 1.3470001
-0.59524578 -0.03207143 1.3470001
-0.73405266 -0.028544128 1.342
-0.72723621 -0.027862478 1.342
-0.70475137 -0.027878666 1.3430001
-0.69545102 -0.025587795 1.3435626
-0.68515515 -0.025865275 1.3423846
-0.60562521 -0.02554052 1.3470001
-0.59455496 -0.025953192 1.3470001
-0.58562434 -0.022450004 1.3470001
-0.57087147 -0.023091432 1.3470001
-0.56522691 -0.022321716 1.3470001
-0.7221238 -0.015337143 1.342
-0.6938107 -0.015444251 1.3427694
-0.68505907 -0.012141905 1.342
-0.62218577 -0.012828572 1.3470001
-0.61710024 -0.013247461 1.3461667
-0.60566843 -0.012805555 1.3445001
-0.59460413 -0.014436124 1.3430712
-0.58545166 -0.015387937 1.3464445
-0.57501608 -0.015492967 1.3470001
-0.56517375 -0.01584838 1.342
-0.55852759 -0.016615236 1.342
0.30147147 -0.011545715 1.3470001
0.34380573 -0.011545715 1.3470001
0.36574322 -0.0128125 1.3451251
0.37538764 -0.014103637 1.346091
0.38520798 -0.01430143 1.3445001
0.39493144 -0.01342 1.342
0.40259996 -0.014059047 1.342
-0.69400573 -0.0076685715 1.342
-0.68505907 -0.0089466665 1.342
-0.62338972 -0.0056764628 1.3448572
-0.61590606 -0.0051260716 1.3445001
-0.60595918 -0.0061064544 1.342
-0.59559244 -0.0076685706 1.342
-0.58562261 -0.007825396 1.3442223
-0.57379192 -0.0064071431 1.3453335
-0.56506658 -0.0038360714 1.3438751
0.20782286 -0.0025657145 1.3470001
0.22438233 -0.003846531 1.3462858
0.2398943 -0.0012828573 1.3470001
0.24557464 -0.0032768256 1.3453335
0.25452811 -0.0051308335 1.3463751
0.26370478 -0.0047767968 1.3447274
0.33795896 -0.004571429 1.3434286
0.34508759 -0.0048000002 1.34325
0.35462853 -0.0038433769 1.3442727
0.3619456 -0.0072576185 1.3445001
0.37576002 -0.0089466665 1.342
0.38342857 -0.0089466665 1.342
0.42666289 -0.0025641273 1.3453335
0.43462113 -0.002564921 1.3461667
0.44002005 -0.0038485718 1.3470001
-0.6130597 0.0029822222 1.342
-0.60965145 0.0038342858 1.342
-0.56590503 0.003609264 1.3451819
0.18601429 0.0076971441 1.3470001
0.19521083 0.0066414732 1.346091
0.20317647 0.0049345577 1.3441429
0.23475794 0.0021325399 1.3445001
0.25649619 0.0038354765 1.34325
0.26271409 0.0023015239 1.3430001
0.28629333 0.0025561904 1.342
0.42613426 0.0025593652 1.3436667
0.43451989 0.0035177383 1.3438751
0.44048145 0.0038414288 1.3445001
0.4575581 0.0051123807 1.342
0.46433482 0.0038385184 1.3431112
0.47421789 0.0083302381 1.3457501
0.48363718 0.0089800004 1.3470001
0.15779144 0.019242859 1.3470001
0.16497543 0.018729717 1.3470001
0.1756779 0.016954288 1.3464446
0.18422443 0.014486374 1.3454616
0.19439918 0.013129642 1.3451251
0.20066094 0.011502857 1.342
0.47476539 0.012796826 1.3436667
0.48478717 0.013455715 1.3457501
0.49468249 0.015457436 1.3443078
0.50497669 0.014095952 1.3457501
0.51314294 0.012828572 1.3470001
0.52595276 0.019195238 1.3436667
0.53238577 0.019242859 1.3470001
-0.025913717 0.025913719 1.3470001
-0.017532382 0.02779524 1.3470001
0.11691086 0.026405906 1.3460001
0.12272668 0.026512383 1.3470001
0.1321343 0.029505717 1.3470001
0.1450794 0.027222024 1.3451251
0.15428905 0.023692381 1.3445001
0.16528064 0.021781588 1.3453335
0.17414001 0.021768097 1.3445001
0.18021142 0.021727618 1.342
0.49590096 0.021727618 1.342
0.52414203 0.025566963 1.3423123
0.53525871 0.026708731 1.3461667
0.54264855 0.02779524 1.3470001
0.5554772 0.024374288 1.3470001
-0.03509846 0.035295092 1.3419999
-0.025561905 0.035786666 1.3419998
-0.016266668 0.036182716 1.3458463
0.11725315 0.036176577 1.3470001
0.12563449 0.036176573 1.3470001
0.13591798 0.035902146 1.346375
0.14311647 0.035640817 1.3434286
0.52529716 0.031952381 1.342
0.53296572 0.031952381 1.342
0.54523349 0.035806507 1.3428334
0.5551278 0.035429947 1.3447778
-0.042177141 0.042177141 1.342
-0.035786666 0.042177141 1.342
-0.025014149 0.045646261 1.3419999
-0.016629128 0.046051513 1.3432499
0.10904287 0.044900004 1.3470001
0.11531111 0.044842858 1.3453335
0.12530684 0.04479048 1.3438182
0.13336523 0.045092143 1.34325
0.54659873 0.043029204 1.342
0.55469334 0.043029204 1.342
0.57546836 0.048060715 1.3457501
-0.021727618 0.053680003 1.342
-0.016113523 0.055255622 1.3430001
-0.0038485718 0.057728577 1.3470001
0.10904287 0.052597146 1.3470001
0.11402985 0.053384129 1.3453335
0.57713372 0.053315874 1.3436667
0.58449018 0.055132251 1.3462858
0.59139717 0.057728577 1.3470001
-0.013560666 0.063464478 1.3435
-0.0049481639 0.064509392 1.3470001
0.0012828573 0.065425716 1.3470001
0.076009288 0.065105006 1.3470001
0.082102865 0.06414286 1.3470001
0.10904287 0.065425716 1.3470001
0.11337932 0.064294152 1.3462858
0.57705998 0.062626667 1.342
0.58554351 0.060219686 1.3453335
0.59139717 0.060294289 1.3470001
-0.35786664 0.070295237 1.342
-0.011502857 0.074129522 1.342
0.082102865 0.071840003 1.3470001
0.11267953 0.070426196 1.3445001
0.56434005 0.078060634 1.3436667
0.57442862 0.075601272 1.3453335
0.58370006 0.073122866 1.3470001
0.566131 0.082388714 1.3427143
0.57343721 0.080820009 1.3470001
-0.6760658 0.098780006 1.3470001
0.60581714 0.094579041 1.342
-0.66588759 0.15976191 1.342
-0.57284224 0.16487429 1.342
-0.56875235 0.16359618 1.342
0.63573819 0.19570835 1.3431112
0.64160377 0.19810475 1.342
0.66738939 0.19174248 1.3440001
-0.7902267 -0.17330667 1.358
-0.78764004 -0.17460001 1.358
-0.69710666 -0.086653329 1.3580002
-0.72235429 -0.070819058 1.3520001
-0.71977907 -0.070819058 1.3520001
-0.70819056 -0.072106674 1.3520001
-0.69969338 -0.073720008 1.358
-0.67522031 -0.073109001 1.3573332
-0.66827434 -0.073394291 1.3520001
-0.65442669 -0.071133338 1.358
-0.7340861 -0.064073071 1.3532857
-0.726861 -0.065668575 1.3520001
-0.70366067 -0.062633142 1.3532002
-0.69741988 -0.064291432 1.3556
-0.68406427 -0.064921431 1.3565
-0.6749723 -0.064541169 1.356941
-0.66566181 -0.064429633 1.3559999
-0.65267515 -0.064398639 1.3562858
-0.62467998 -0.060786664 1.358
-0.61950666 -0.060786664 1.358
-0.59881335 -0.060786664 1.358
-0.75918663 -0.050440002 1.358
-0.740614 -0.056311745 1.3540001
-0.73250091 -0.05511 1.3535001
-0.72503072 -0.052400321 1.3530002
-0.71555328 -0.052531008 1.3526669
-0.70547223 -0.054509208 1.3520001
-0.69917721 -0.05794286 1.3520001
-0.68158668 -0.058200002 1.358
-0.67547274 -0.05584849 1.3579999
-0.66500407 -0.054262146 1.3564999
-0.65682858 -0.055613339 1.3579999
-0.64278668 -0.051733337 1.358
-0.63588887 -0.052164447 1.3580002
-0.62570143 -0.054308787 1.354
-0.6164369 -0.055104133 1.3559999
-0.60295206 -0.053026669 1.358
-0.59708887 -0.056044444 1.3579999
-0.72204173 -0.044489525 1.3558182
-0.7140637 -0.044117037 1.3579999
-0.70819056 -0.04506667 1.3520001
-0.68758869 -0.042491432 1.3520001
-0.66735995 -0.047853336 1.358
-0.62209332 -0.040093333 1.358
-0.61562669 -0.040093333 1.358
-0.60140002 -0.047853336 1.358
-0.59105337 -0.040093333 1.358
-0.58587998 -0.040093333 1.3580002
-0.57346404 -0.042421333 1.3579999
-0.56409258 -0.042653058 1.3571428
-0.55444878 -0.043521527 1.3520001
-0.72235429 -0.039916191 1.3520001
-0.71526289 -0.03685905 1.3532002
-0.7094782 -0.037340954 1.3520001
-0.62209332 -0.037506666 1.358
-0.61556101 -0.034840953 1.355
-0.60508186 -0.03598392 1.3546667
-0.59419119 -0.035427518 1.3553333
-0.58428586 -0.03467707 1.3561537
-0.57450867 -0.035150096 1.3568
-0.56333339 -0.034980316 1.3520001
-0.55582225 -0.036482543 1.3520001
0.34359559 -0.033195555 1.3580002
-0.61662191 -0.026346857 1.3562
-0.60260576 -0.02961524 1.3520001
-0.59101719 -0.028327622 1.3520001
-0.584095 -0.026572861 1.3527499
-0.57479107 -0.026279431 1.3526001
-0.56368005 -0.026643811 1.352
-0.55625147 -0.02575238 1.3520001
0.25718191 -0.02326381 1.357
0.2655564 -0.024272205 1.3541819
0.28432924 -0.02323143 1.355
0.29358667 -0.021986667 1.358
0.32366666 -0.021921905 1.3540001
0.3350758 -0.027581334 1.3532002
0.34433919 -0.024789782 1.356909
0.35437337 -0.023279998 1.3579999
0.36471999 -0.021986667 1.358
0.37636003 -0.022848889 1.3580002
0.38584447 -0.024860742 1.3579999
0.39705333 -0.021986667 1.358
0.40998667 -0.021986667 1.358
0.41257337 -0.021986667 1.358
-0.62707055 -0.011588573 1.3520001
-0.61644632 -0.015288709 1.3537143
-0.60904384 -0.01673905 1.3520001
-0.58071625 -0.019314287 1.3520001
-0.56011432 -0.019314287 1.3520001
0.17848 -0.01164 1.358
0.19788 -0.015520001 1.358
0.20437312 -0.014681667 1.3549998
0.21454097 -0.015166666 1.3550001
0.2251021 -0.014473905 1.3567998
0.23150666 -0.01164 1.358
0.2467524 -0.013567143 1.3565
0.2550886 -0.015462144 1.3527499
0.26524955 -0.015451431 1.3519999
0.27577874 -0.015467501 1.3531249
0.28456387 -0.019314287 1.3520001
0.2970216 -0.018484445 1.3540001
0.3041203 -0.013767938 1.355
0.31517145 -0.016115239 1.3535001
0.34613541 -0.01650494 1.3520001
0.3552309 -0.015197335 1.3523999
0.36429811 -0.017520193 1.3526001
0.37605983 -0.018301334 1.3532002
0.38614097 -0.019371429 1.3559999
0.39556247 -0.018259594 1.3554286
0.40475959 -0.018048098 1.3535001
0.41384083 -0.01879924 1.3520001
0.14873333 -0.0012933334 1.358
0.15390667 -0.0012933334 1.3580002
0.17645206 -0.0045180959 1.3540001
0.18541718 -0.0059230477 1.3520001
0.19472097 -0.0051590479 1.3540001
0.20415609 -0.0058060717 1.354625
0.21374479 -0.0077257152 1.3520001
0.22707848 -0.0069611436 1.3532002
0.23502097 -0.0054224771 1.3544002
0.24351266 -0.0075474833 1.3528574
0.26567873 -0.0090133343 1.3520001
0.27168766 -0.0090133343 1.3520001
0.34894478 -0.0090133343 1.3520001
0.35512537 -0.0084982868 1.3520001
0.42809334 -0.0064666667 1.358
0.43530318 -0.0071779597 1.3528574
0.44620001 -0.0012933334 1.358
0.48593235 -0.0021546034 1.357
0.49379468 -0.002328 1.358
0.50310665 -0.0012933334 1.3580002
-0.035800349 0.0066883122 1.3558182
-0.025600761 0.005429334 1.3575999
-0.016813336 0.0051733339 1.3579999
0.14638788 0.004201191 1.35725
0.15479869 0.004274433 1.3570768
0.16886525 0.0051547624 1.3535001
0.17521264 0.0051519056 1.3527499
0.18464459 0.0036053336 1.3520001
0.19494554 0.0018026668 1.3520001
0.20344383 0.0012876191 1.3520001
0.44422862 0.0012876191 1.3520001
0.4767698 0.0035473811 1.35575
0.4843224 0.003863334 1.3525001
0.4948335 0.0055240826 1.3545715
0.50293922 0.0050175674 1.3559999
0.51193714 0.0090266671 1.3540001
-0.024832653 0.01379592 1.3520001
-0.016766192 0.015478574 1.3545002
0.13838667 0.014226668 1.358
0.14461119 0.015490003 1.3557498
0.15462248 0.015224383 1.3551999
0.16479291 0.013955152 1.3547273
0.17346069 0.013428028 1.3520001
0.49058291 0.011588573 1.3520001
0.50410289 0.012232383 1.3520001
0.51891047 0.012876192 1.3520001
0.52491939 0.015022223 1.3520001
0.53681266 0.017296383 1.3556
0.54208767 0.019314287 1.3520001
-0.021889525 0.021889525 1.3520001
-0.014474075 0.024801694 1.3546667
-0.0054319999 0.029229334 1.358
0.0012933334 0.029746667 1.358
0.10993333 0.029746667 1.358
0.11476763 0.024497144 1.3540001
0.12698922 0.024962539 1.3560001
0.13399825 0.025494862 1.3519999
0.14260381 0.024142858 1.3520001
0.15322667 0.021889525 1.3520001
0.53822482 0.021889525 1.3520001
0.54788196 0.027683809 1.3520001
0.55496383 0.027775785 1.3520001
0.56370634 0.027322669 1.3532002
0.57294661 0.027160002 1.3580002
0.58200002 0.029746667 1.358
-0.011588573 0.034765717 1.3520001
-0.0051558339 0.036099408 1.3538749
0.0012919047 0.036169048 1.3564999
0.098577775 0.038309842 1.3559999
0.10655049 0.037661336 1.3544002
0.11296413 0.035647936 1.3530002
0.12747429 0.032190479 1.3520001
0.56502461 0.035715155 1.3525456
0.57511842 0.035268251 1.355
0.58255428 0.034550473 1.3579999
0.59622669 0.032333333 1.358
-0.011588573 0.04506667 1.3520001
-0.0051504769 0.04506667 1.3520001
0.0051614968 0.044397417 1.3541429
0.096331783 0.044941649 1.3552728
0.1052336 0.04506667 1.3520001
0.5760808 0.044551622 1.3520001
0.58386987 0.044028148 1.3553334
0.59105337 0.046560004 1.358
-0.011588573 0.052792385 1.3520001
-0.0052363179 0.05382248 1.3519999
0.0042621251 0.05419796 1.3524616
0.095362045 0.054125361 1.353125
0.10535733 0.054182988 1.3523999
0.11331049 0.05794286 1.3520001
0.57299054 0.050217148 1.3520001
0.58758354 0.051075559 1.3520001
0.59492129 0.054671112 1.3559999
0.11331049 0.061805721 1.3520001
0.58844197 0.074681908 1.3520001
0.59101719 0.074681908 1.3520001
-0.46933717 0.093352385 1.3520001
-0.57041526 0.14035049 1.3520001
-0.56651336 0.14066191 1.355
-0.55238861 0.14035049 1.3520001
-0.79703051 -0.17134857 1.363
-0.80125713 -0.16806857 1.368
-0.79573244 -0.16745429 1.363
-0.61364573 -0.10683428 1.368
-0.60524505 -0.10350353 1.3658571
-0.70356762 -0.092164762 1.363
-0.71005708 -0.085554279 1.368
-0.70485985 -0.085628308 1.3651428
-0.69655401 -0.084406205 1.3635
-0.66417098 -0.082982138 1.36675
-0.6548562 -0.083583429 1.367
-0.64647776 -0.084164575 1.368
-0.61625147 -0.087291427 1.368
-0.71201146 -0.075565718 1.368
-0.70486575 -0.07502991 1.363
-0.69562304 -0.075350374 1.3641114
-0.68527627 -0.075407535 1.363
-0.67890382 -0.079183817 1.363
-0.6636284 -0.077920839 1.3636249
-0.65439534 -0.074978173 1.3664615
-0.64491433 -0.075565718 1.368
-0.63579434 -0.074914299 1.368
-0.62787706 -0.073815785 1.3665714
-0.60496002 -0.072960012 1.368
-0.5954057 -0.071657151 1.368
-0.70290381 -0.068273805 1.3655
-0.69834596 -0.067034043 1.36675
-0.68755776 -0.067933649 1.363
-0.65275484 -0.065549098 1.3674445
-0.64379752 -0.066445716 1.368
-0.6366486 -0.065238349 1.3675455
-0.62618333 -0.065592766 1.3646667
-0.61525542 -0.063242428 1.3652726
-0.60441983 -0.065311998 1.3659999
-0.5944767 -0.064822599 1.3666667
-0.58611488 -0.061710674 1.367
-0.57716572 -0.063840002 1.368
-0.56848001 -0.062102858 1.368
-0.08671239 -0.063550472 1.368
-0.076217145 -0.063188575 1.368
-0.7645781 -0.050625715 1.363
-0.66592282 -0.051923811 1.363
-0.65354097 -0.053821031 1.3630002
-0.64532417 -0.055404507 1.3643636
-0.63770986 -0.056322228 1.3646668
-0.61302549 -0.053546429 1.363
-0.60621047 -0.05516905 1.363
-0.59382874 -0.053821024 1.3630002
-0.58521134 -0.054621782 1.3655001
-0.57513839 -0.054890733 1.3656669
-0.56646454 -0.053975604 1.3668462
-0.55947906 -0.050625715 1.363
-0.19412571 -0.050811429 1.368
-0.18500571 -0.050811429 1.368
-0.76398122 -0.046775475 1.3642499
-0.72044295 -0.042837143 1.363
-0.639961 -0.048029523 1.363
-0.61396563 -0.04493076 1.3635
-0.60499889 -0.04387562 1.3630003
-0.59489852 -0.044691566 1.3630002
-0.58404297 -0.045033924 1.3630002
-0.5750562 -0.048029523 1.363
-0.56683493 -0.047164127 1.363
-0.55947906 -0.048029523 1.363
0.23712 -0.040388573 1.368
0.24102858 -0.040388573 1.368
0.30573714 -0.041257143 1.368
0.31138286 -0.042994287 1.368
-0.59842193 -0.037644763 1.363
0.228 -0.033874284 1.368
0.23446761 -0.035104655 1.3652222
0.24471688 -0.035145003 1.3667501
0.25579426 -0.032571428 1.368
0.26578286 -0.032571428 1.368
0.27359998 -0.032571428 1.368
0.29753643 -0.033133574 1.3642501
0.30512303 -0.035403203 1.3675455
0.34690928 -0.035732146 1.3642501
0.35220572 -0.034308571 1.368
0.3680436 -0.034820475 1.36675
0.3755042 -0.035163917 1.3674445
0.38386825 -0.033400316 1.3663334
0.39346284 -0.032571428 1.368
0.14917715 -0.024102857 1.368
0.1547143 -0.024428573 1.368
0.16025144 -0.024754286 1.368
0.17328 -0.022148572 1.368
0.18500572 -0.024754286 1.368
0.19588287 -0.023625987 1.3672857
0.20557107 -0.023421071 1.366125
0.21555662 -0.024478875 1.3657273
0.22561985 -0.025693117 1.3645384
0.23468623 -0.026278313 1.3637694
0.244381 -0.025765778 1.3663335
0.25475278 -0.026670875 1.3659167
0.26578742 -0.029358858 1.364
0.27229714 -0.029965715 1.368
0.28722668 -0.024693968 1.3646666
0.29657182 -0.026040951 1.367
0.3038263 -0.025796568 1.368
0.3139886 -0.024754286 1.368
0.32461703 -0.025572591 1.3652222
0.33101428 -0.025961906 1.363
0.34788954 -0.029856192 1.363
0.35512179 -0.028372655 1.363
0.3659724 -0.027492674 1.3645384
0.3756375 -0.026334979 1.3639091
0.3839083 -0.027305577 1.3651428
0.39500389 -0.026098095 1.363909
0.40491202 -0.024375595 1.364875
0.41478649 -0.024215046 1.367
0.42082286 -0.022148572 1.368
0.47033143 -0.022148572 1.368
-0.62178761 -0.019471427 1.363
-0.61789334 -0.019471427 1.363
-0.0059931432 -0.012246857 1.368
0.0026057144 -0.011725714 1.368
0.14852573 -0.015634285 1.368
0.15504001 -0.015634285 1.368
0.16262028 -0.015989609 1.368
0.17216328 -0.015075919 1.368
0.19378708 -0.016504353 1.363
0.20769525 -0.019471427 1.363
0.21548381 -0.019471427 1.363
0.22612819 -0.018432951 1.363
0.23574151 -0.015971428 1.3661819
0.2434638 -0.01667472 1.3657273
0.25053239 -0.019471427 1.363
0.30579734 -0.018447239 1.364
0.31259105 -0.017276736 1.3651428
0.44731426 -0.014331429 1.368
0.45274287 -0.01368 1.368
0.47163427 -0.015634287 1.368
0.51984 -0.014331428 1.368
0.52374852 -0.014331429 1.368
-0.040240955 -0.0051923813 1.363
-0.035048574 -0.0051923809 1.363
-0.026461175 -0.0058913548 1.3630002
-0.014891355 -0.0058972165 1.3645384
-0.0052114297 -0.0052114297 1.368
0.0029314286 -0.0061885715 1.368
0.14679031 -0.0055632903 1.3661819
0.15552045 -0.0062596542 1.363909
0.16303286 -0.0042330953 1.36675
0.17230287 -0.0061885715 1.368
0.43435431 -0.0091033336 1.3655
0.44834337 -0.0060792062 1.3671666
0.45408747 -0.004280136 1.3672857
0.46772566 -0.0056457147 1.368
0.47467259 -0.0049189953 1.3671668
0.48190257 -0.0060768258 1.3663334
0.51499569 -0.0052090478 1.3655
0.52505141 -0.0091200005 1.368
-0.035048574 0.0012980952 1.363
-0.029856192 0.0012980952 1.363
-0.011693572 0.0051935716 1.3642499
-0.0052114292 0.0052114297 1.368
0.0021714286 0.0052114292 1.368
0.12768 0.0091200005 1.368
0.13821618 0.0053927894 1.3672857
0.14376405 0.0061659524 1.363
0.15706952 0.0090866666 1.363
0.1648581 0.0051923809 1.363
0.45674887 0.0013012699 1.3663334
0.50755525 0.0051923809 1.363
0.51586831 0.0041975658 1.3674445
0.53547424 0.0091200005 1.368
-0.011682857 0.015577143 1.363
-0.0052022031 0.015614343 1.3664377
0.0045599998 0.016719999 1.368
0.011725714 0.016937142 1.368
0.10813715 0.019542858 1.368
0.11715001 0.015616429 1.36675
0.12633 0.015106952 1.3675001
0.13465443 0.015784353 1.3651429
0.52832478 0.011682857 1.363
0.53465784 0.012342619 1.3642499
0.54429889 0.015052109 1.3658571
0.55371428 0.01889143 1.368
0.56544006 0.019542858 1.368
0.57195431 0.019542858 1.368
0.58628571 0.019542858 1.368
-0.011682857 0.022067619 1.363
-0.0050761034 0.024442511 1.363909
0.0054697781 0.025775939 1.3670001
0.10678248 0.027276192 1.364
0.11220699 0.02642476 1.3646666
0.54850286 0.022148572 1.368
0.55425465 0.023417499 1.366125
0.56549811 0.022100002 1.365
0.5770967 0.025580529 1.3657777
0.58467579 0.025117541 1.3642501
0.59261596 0.02694626 1.3658571
0.094760954 0.036346667 1.363
0.57609463 0.035048574 1.363
0.58803713 0.036346667 1.363
0.59492105 0.035150692 1.3668889
0.60257149 0.034525715 1.368
0.58803713 0.040240955 1.363
0.59565866 0.043676 1.365
-0.5748859 0.11397401 1.3665714
-0.56531113 0.11462435 1.3676875
-0.55557543 0.11427917 1.368
-0.5449118 0.11445447 1.3646667
-0.57375813 0.12331904 1.363
-0.56652588 0.12183551 1.363
-0.55614108 0.12183551 1.363
-0.54779619 0.12072286 1.363
-0.80594891 -0.14140223 1.3790001
-0.80619907 -0.13452287 1.3789999
-0.80615598 -0.12544979 1.3782858
-0.80657434 -0.11576096 1.3789999
-0.63433999 -0.11163334 1.3790001
-0.62549722 -0.11122858 1.3740001
-0.80382776 -0.10473274 1.3746252
-0.79831159 -0.10480143 1.3755001
-0.67111331 -0.10112667 1.3790001
-0.66323334 -0.10309666 1.3789999
-0.6557911 -0.10375333 1.3790001
-0.64397115 -0.10200223 1.3790001
-0.63565338 -0.10506666 1.3789998
-0.62569427 -0.10521619 1.3762729
-0.61670899 -0.10509791 1.3760002
-0.60456002 -0.10076001 1.3740001
-0.59801716 -0.10076001 1.3740001
-0.80346286 -0.094217137 1.3740001
-0.79579043 -0.094154902 1.3761054
-0.78818768 -0.093997143 1.3789999
-0.7157886 -0.090291433 1.3740001
-0.66372651 -0.095674023 1.3761431
-0.65373498 -0.094278514 1.3775713
-0.64629722 -0.094395712 1.3765001
-0.63611835 -0.095187716 1.3785833
-0.62353432 -0.090945721 1.3740001
-0.61175072 -0.092721328 1.3790001
-0.60359794 -0.094010957 1.3765001
-0.59779191 -0.094383813 1.3765001
-0.8053003 -0.083546788 1.377889
-0.79596877 -0.083810531 1.376353
-0.78806543 -0.084969528 1.3773333
-0.72102004 -0.084053338 1.3790001
-0.71513432 -0.085711434 1.3740001
-0.66082859 -0.08767429 1.3740001
-0.6551581 -0.085493334 1.3740001
-0.64429355 -0.085578933 1.377125
-0.63532341 -0.084680848 1.3773333
-0.62546349 -0.085087143 1.3745003
-0.61408687 -0.084905371 1.3753638
-0.6042484 -0.084296003 1.3786665
-0.59546536 -0.08405333 1.3789999
-0.58443338 -0.080113336 1.3790001
-0.80495644 -0.075274862 1.3770001
-0.79745102 -0.076432616 1.3777499
-0.71753341 -0.078950487 1.3740001
-0.65559429 -0.07916858 1.3740001
-0.64250857 -0.079822861 1.3740001
-0.63640189 -0.079822861 1.3740001
-0.62459117 -0.076199122 1.3740003
-0.61558938 -0.076194413 1.3746669
-0.60450608 -0.076913692 1.3746252
-0.59495044 -0.07495074 1.3762727
-0.58591431 -0.073897153 1.3773335
-0.57740712 -0.074261434 1.3740001
-0.65140688 -0.064643428 1.3740001
-0.64599818 -0.063247621 1.3740001
-0.62287998 -0.069354288 1.3740001
-0.61730915 -0.068357907 1.3750001
-0.59175402 -0.068566032 1.3756667
-0.58629006 -0.067181773 1.3754286
-0.57693088 -0.066429935 1.3754286
-0.7744289 -0.052971113 1.3790001
-0.7761175 -0.04678667 1.3773333
-0.0072233332 -0.042683333 1.3790001
0.19568667 -0.040713333 1.3790001
0.20225334 -0.040713333 1.3790001
0.22679161 -0.041951273 1.3765001
0.23531359 -0.043262627 1.3765001
0.24625969 -0.042964026 1.3762221
0.25084668 -0.04596667 1.3790001
0.2872692 -0.040664125 1.3773335
0.29627049 -0.041293811 1.3765001
0.30563843 -0.045476511 1.3773333
0.3138867 -0.044390667 1.3790001
0.34720767 -0.043182861 1.3740001
0.35527131 -0.041951273 1.3765001
0.36562708 -0.041209143 1.378
0.37231049 -0.04195286 1.3765001
-0.011777144 -0.03402286 1.3740001
-0.0061504762 -0.033999123 1.377077
0.17767523 -0.032458093 1.3789999
0.18555525 -0.032082859 1.3789999
0.19444743 -0.03385416 1.3776666
0.20413372 -0.033527009 1.3765001
0.21488361 -0.033508647 1.3757858
0.22453596 -0.034426495 1.3758183
0.23161715 -0.036640003 1.3740001
0.24993716 -0.030097144 1.3740001
0.25517145 -0.031405717 1.3740001
0.26525098 -0.03627127 1.3765001
0.27580002 -0.036335558 1.3790001
0.28626814 -0.034719206 1.3756667
0.29376653 -0.034175158 1.3753638
0.31580421 -0.033696726 1.3784444
0.32576138 -0.031285442 1.3768572
0.33429524 -0.03146524 1.3765001
0.35686612 -0.035705309 1.374
0.3634091 -0.035725035 1.3747145
0.39911428 -0.030097144 1.3740001
0.4045954 -0.031425558 1.3748335
0.41654825 -0.03123543 1.378
0.42355001 -0.030863333 1.3790001
-0.011777144 -0.024862858 1.3740001
-0.0052362704 -0.024887064 1.37525
0.0021888891 -0.023202224 1.3790001
0.14647937 -0.024050796 1.3773333
0.15891334 -0.02758 1.3790001
0.1661886 -0.024862861 1.3740001
0.17546754 -0.025100781 1.3740002
0.18581715 -0.024862859 1.3740002
